# .PCD v0.7 - Point Cloud Data file format
VERSION 0.7
FIELDS x y z
SIZE 4 4 4
TYPE F F F
COUNT 1 1 1
WIDTH 1393
HEIGHT 1
VIEWPOINT 0 0 0 1 0 0 0
POINTS 1393
DATA ascii
0.97568029 -0.96909159 -2.0029964
0.97656232 -0.96862453 -2.0027611
0.97744268 -0.96797055 -2.002655
0.9783268 -0.96759552 -2.0023584
0.97920287 -0.96694374 -2.0022559
0.98008609 -0.96647668 -2.0020196
0.98097098 -0.96610296 -2.0017209
0.98185962 -0.9659161 -2.0012896
0.98276305 -0.96619368 -2.0005319
0.98368257 -0.96730572 -1.9991837
0.98460484 -0.9683283 -1.9978979
0.98551095 -0.96860498 -1.997138
0.98639894 -0.96841711 -1.9967067
0.98728627 -0.96804017 -1.996407
0.98816174 -0.96738863 -1.9963046
0.98904508 -0.9668262 -1.996138
0.98991674 -0.96607918 -1.9960991
0.99078155 -0.96486831 -1.9963907
0.9916572 -0.96421826 -1.9962897
0.99253476 -0.96356499 -1.9961867
0.99340987 -0.96281874 -1.9961494
0.99428487 -0.96207243 -1.9961121
0.99515009 -0.96095413 -1.9963372
0.9960351 -0.96057999 -1.9960375
0.99692249 -0.96029878 -1.9956721
0.99781632 -0.96020132 -1.9951724
0.99870092 -0.95992154 -1.9948087
0.99959195 -0.95963979 -1.994442
1.0004796 -0.95935965 -1.9940774
1.0013695 -0.95917183 -1.9936471
1.002261 -0.95898199 -1.993215
1.0031408 -0.95851612 -1.9929796
1.0040162 -0.95777029 -1.9929416
1.0048976 -0.95720863 -1.9927753
1.0057749 -0.95655566 -1.9926734
1.0066555 -0.95599443 -1.9925048
1.0075277 -0.95525056 -1.9924691
1.008408 -0.95469004 -1.9922994
1.0092852 -0.95394188 -1.9922593
1.0101576 -0.95310175 -1.9922915
1.0110236 -0.95198315 -1.9925145
1.0118912 -0.95095754 -1.9926754
1.0127251 -0.94989043 -1.9928421
1.01361 -0.94864964 -1.9931989
1.0144626 -0.94757372 -1.9934062
1.0152941 -0.94639057 -1.9936808
0.90657121 -0.97749084 -1.9737084
0.90745986 -0.97732198 -1.973274
0.87681913 -0.94560254 -1.9669862
0.88298559 -0.93650556 -1.9507041
0.86384684 -0.94582444 -1.9764529
0.91750515 -0.97337371 -1.9678776
0.92765617 -1.0029398 -2.0081084
0.92853832 -1.0023783 -2.007942
0.92941904 -1.001912 -2.0077109
0.93030024 -1.0014453 -2.0074751
0.93118727 -1.0010698 -2.007174
0.93206841 -1.0006032 -2.0069377
0.93295109 -1.0001358 -2.0067039
0.93383342 -0.99966836 -2.0064712
0.93471593 -0.99910665 -2.0062976
0.93559605 -0.9986403 -2.0060673
0.93647671 -0.9980796 -2.0058951
0.93736112 -0.99761087 -2.0056615
0.93823904 -0.99705148 -2.0054944
0.9391163 -0.99639857 -2.0053878
0.93999803 -0.99593151 -2.0051572
0.94088066 -0.99546373 -2.0049195
0.94176167 -0.99490267 -2.0047541
0.94264203 -0.99434191 -2.004585
0.94352168 -0.99378169 -2.0044143
0.94440144 -0.99322128 -2.004245
0.945279 -0.99266243 -2.0040789
0.94615769 -0.99200779 -2.0039747
0.94703048 -0.99126267 -2.0039392
0.94777405 -0.98567522 -2.007308
0.94866687 -0.98557985 -2.0068095
0.94954479 -0.98492622 -2.0067058
0.95042449 -0.98427129 -2.0066042
0.95130241 -0.98371226 -2.0064368
0.95218569 -0.98324418 -2.0062001
0.95306474 -0.98268449 -2.0060318
0.95394766 -0.98221684 -2.0057991
0.95483112 -0.981749 -2.005564
0.95571142 -0.98128277 -2.0053284
0.95659482 -0.98081487 -2.0050936
0.9574793 -0.98034602 -2.0048602
0.95835662 -0.97978729 -2.0046902
0.95923859 -0.97922593 -2.0045235
0.96011829 -0.97875988 -2.0042899
0.96099979 -0.97819865 -2.0041206
0.96188003 -0.97773248 -2.0038838
0.96275896 -0.9770782 -2.0037837
0.96364188 -0.97661048 -2.0035458
0.96451938 -0.97605151 -2.0033767
0.9654004 -0.97549033 -2.0032108
0.96627897 -0.97493088 -2.0030398
0.96716136 -0.97446358 -2.0028045
0.96804351 -0.97390175 -2.0026369
0.96892399 -0.97334075 -2.002471
0.96980172 -0.9727819 -2.0022991
0.97068471 -0.97221982 -2.0021307
0.97156709 -0.97175193 -2.0018988
0.97244614 -0.97119212 -2.0017276
0.9733246 -0.97063273 -2.001559
0.97420484 -0.97007185 -2.0013924
0.97508633 -0.96951085 -2.0012224
0.9759649 -0.96904576 -2.0009856
0.9768489 -0.96857709 -2.0007524
0.97772855 -0.96792293 -2.0006483
0.9786092 -0.96745604 -2.0004146
0.97948676 -0.96689743 -2.0002475
0.9803735 -0.96652228 -1.9999506
0.98126894 -0.96661472 -1.9993206
0.98218238 -0.96717268 -1.9983662
0.98310506 -0.9682861 -1.9970198
0.98401821 -0.96902823 -1.9959344
0.98491782 -0.96902621 -1.9953712
0.98580205 -0.96874613 -1.9950061
0.98668718 -0.9682759 -1.9947715
0.98755485 -0.96734345 -1.9948603
0.98843545 -0.96678227 -1.994692
0.98930645 -0.96612501 -1.9945897
0.99015075 -0.96408212 -1.9954724
0.99807203 -0.95913166 -1.993888
0.99896443 -0.95903677 -1.9933916
0.99985707 -0.95884866 -1.9929583
1.000751 -0.95884705 -1.9923981
1.0016439 -0.95884478 -1.991836
1.0025384 -0.95874757 -1.9913361
1.0034213 -0.95837438 -1.9910367
1.0043037 -0.9578141 -1.9908675
1.0051844 -0.95725244 -1.9907008
1.006055 -0.95641476 -1.9907308
1.0069373 -0.95594722 -1.9904931
1.007815 -0.95529336 -1.9903909
1.0086915 -0.95454544 -1.9903516
1.0095652 -0.95379996 -1.9903166
1.0104427 -0.9531455 -1.9902114
1.011312 -0.95221311 -1.9903064
1.0121766 -0.95109403 -1.9905307
1.0130383 -0.94988286 -1.9908202
1.0139012 -0.94874465 -1.9910636
1.01478 -0.94749773 -1.9914163
1.0155857 -0.94629276 -1.9916905
1.0164683 -0.94485652 -1.9921855
1.0172198 -0.94367743 -1.9926085
0.90835202 -0.97714341 -1.9728416
0.89850515 -0.97795355 -1.9783689
0.89941406 -0.97798121 -1.9777718
0.87402272 -0.9429574 -1.9541272
0.92530358 -1.0041224 -2.0069547
0.92618603 -1.0036546 -2.0067232
0.9270674 -1.0030938 -2.0065522
0.92795187 -1.00272 -2.0062518
0.92884082 -1.0024379 -2.0058861
0.92972231 -1.0020647 -2.0055883
0.93060362 -1.0015032 -2.0054154
0.93148303 -1.0009429 -2.0052474
0.93236524 -1.0004754 -2.0050113
0.93324262 -0.99991626 -2.0048447
0.93412894 -0.99954081 -2.0045447
0.93501014 -0.99897963 -2.0043755
0.93589115 -0.99851245 -2.0041413
0.93677026 -0.99785811 -2.0040374
0.9376502 -0.99739164 -2.0038021
0.93853194 -0.99682981 -2.0036349
0.93941009 -0.99627018 -2.0034654
0.94028914 -0.99571013 -2.0032947
0.94117403 -0.99524087 -2.0030637
0.94205248 -0.99468142 -2.0028918
0.9429335 -0.99421412 -2.0026565
0.94381016 -0.99356097 -2.002552
0.94468957 -0.99300069 -2.0023854
0.94557416 -0.99253166 -2.0021515
0.9464522 -0.99197191 -2.0019815
0.94733059 -0.99131584 -2.0018802
0.94819194 -0.99019963 -2.002104
0.94894785 -0.9851675 -2.0050755
0.9498316 -0.98469919 -2.0048387
0.95071375 -0.98413694 -2.0046718
0.95159233 -0.98357743 -2.0045018
0.95247459 -0.98310995 -2.0042655
0.95335639 -0.98264253 -2.0040343
0.95423585 -0.98208272 -2.0038614
0.95511967 -0.98170835 -2.0035605
0.95599842 -0.98114848 -2.0033948
0.95687896 -0.98058742 -2.0032248
0.95776212 -0.98011947 -2.0029926
0.95864367 -0.9796524 -2.0027566
0.95952857 -0.97918308 -2.0025194
0.9604069 -0.97862357 -2.0023518
0.96128672 -0.97806305 -2.002183
0.96216875 -0.97759539 -2.0019474
0.96304959 -0.97703415 -2.0017824
0.96392769 -0.9764747 -2.0016117
0.96480632 -0.97591472 -2.0014424
0.96568847 -0.9754473 -2.0012074
0.96657115 -0.97488517 -2.0010395
0.96745193 -0.97441846 -2.0008056
0.96833336 -0.97395122 -2.0005686
0.96921062 -0.97329766 -2.0004663
0.97009015 -0.97273707 -2.0002973
0.97097188 -0.97217524 -2.0001259
0.97184867 -0.97161651 -1.9999585
0.97272962 -0.97105521 -1.9997892
0.97361255 -0.97058707 -1.9995575
0.97449416 -0.97002572 -1.9993868
0.97537637 -0.96955788 -1.9991533
0.97625488 -0.96899796 -1.9989822
0.97713268 -0.96843898 -1.9988122
0.97801447 -0.96797144 -1.9985784
0.9788931 -0.96731764 -1.9984776
0.97978377 -0.96712971 -1.9980481
0.98068064 -0.96722209 -1.9974205
0.98159194 -0.96796483 -1.9963347
0.98251295 -0.96889448 -1.9951187
0.98342401 -0.9693594 -1.9942299
0.98431903 -0.96926391 -1.9937344
0.9852078 -0.96907598 -1.9932998
0.98609245 -0.96870136 -1.9930037
0.9869712 -0.96814114 -1.9928312
0.98781914 -0.96646327 -1.9934508
0.98866272 -0.96459842 -1.9941976
1.0001296 -0.95842862 -1.9912151
1.0010271 -0.95842505 -1.9906493
1.0019143 -0.95823652 -1.9902183
1.0028026 -0.95795768 -1.9898561
1.0036938 -0.95776969 -1.9894263
1.004586 -0.95757967 -1.9889956
1.0054626 -0.95702082 -1.9888265
1.0063401 -0.95636678 -1.9887228
1.0072166 -0.95571357 -1.988616
1.0080961 -0.95505792 -1.9885157
1.0089722 -0.95440495 -1.9884107
1.009849 -0.95375067 -1.988306
1.0107219 -0.95291007 -1.9883343
1.0115967 -0.95216072 -1.9882936
1.0124574 -0.95095021 -1.9885828
1.0133638 -0.94975895 -1.9888755
1.0141823 -0.94861478 -1.9890985
1.0150192 -0.94726658 -1.9894872
1.0159193 -0.94574296 -1.9900552
1.0167264 -0.94444865 -1.9904066
1.0176113 -0.94320178 -1.9907568
1.0184561 -0.94193286 -1.9911048
0.89579725 -0.97881991 -1.9847629
0.87563044 -0.94563758 -1.9640644
0.89668924 -0.97891629 -1.9841479
0.89758503 -0.97894657 -1.9835869
0.8984738 -0.97897649 -1.9830307
0.92471689 -1.0045599 -2.0052063
0.92559844 -1.0039988 -2.0050368
0.92648852 -1.0037163 -2.0046661
0.92737097 -1.0032487 -2.0044334
0.92825407 -1.0027809 -2.0041969
0.92913628 -1.0024073 -2.0038996
0.93001759 -1.0018457 -2.0037315
0.93089694 -1.0013796 -2.0034971
0.93177634 -1.0007246 -2.0033896
0.93266165 -1.0003496 -2.0030894
0.93354362 -0.99988163 -2.0028591
0.93442023 -0.9992283 -2.0027528
0.9353025 -0.9987604 -2.0025179
0.93618095 -0.99820054 -2.0023468
0.93706298 -0.99773252 -2.0021119
0.93794483 -0.99717051 -2.0019436
0.93882179 -0.9966113 -2.0017762
0.93970293 -0.99604946 -2.0016067
0.9405809 -0.9954899 -2.0014362
0.9414643 -0.99502134 -2.0012
0.94234431 -0.99446023 -2.0010319
0.94322246 -0.99390036 -2.0008643
0.9441036 -0.993339 -2.0006917
0.94498593 -0.99287081 -2.0004618
0.94586217 -0.99231237 -2.000289
0.94674212 -0.99175107 -2.0001242
0.9476288 -0.99137497 -1.9998219
0.94850391 -0.99062735 -1.999784
0.9493773 -0.98997587 -1.9996809
0.95011985 -0.9845674 -2.0029094
0.95100558 -0.9840976 -2.0026715
0.95188415 -0.9835375 -2.0025043
0.95276403 -0.9829765 -2.0023346
0.95364392 -0.98241615 -2.0021663
0.9545266 -0.98204231 -2.0018637
0.95540529 -0.98148215 -2.0016971
0.95628548 -0.98092103 -2.0015285
0.95716679 -0.98045391 -2.0012922
0.95805067 -0.97998518 -2.0010576
0.95893198 -0.9794237 -2.0008857
0.95981461 -0.97895581 -2.0006523
0.96069503 -0.97848898 -2.0004196
0.96157509 -0.97792786 -2.0002513
0.96245229 -0.97736865 -2.0000787
0.9633342 -0.97690117 -1.9998437
0.96421432 -0.97634 -1.9996738
0.96509558 -0.97577834 -1.9995042
0.96597624 -0.97531152 -1.9992715
0.96686083 -0.97484183 -1.9990368
0.96773565 -0.97418976 -1.9989327
0.96861911 -0.9737215 -1.9987004
0.9695012 -0.97325331 -1.9984639
0.97037792 -0.9725998 -1.9983599
0.97125572 -0.97204024 -1.9981885
0.97213858 -0.97157198 -1.9979556
0.97301722 -0.97101182 -1.9977883
0.9738993 -0.97044945 -1.9976169
0.97477782 -0.96988946 -1.9974506
0.97566032 -0.96942127 -1.9972132
0.97653741 -0.968768 -1.9971088
0.97742271 -0.96839255 -1.9968122
0.97830141 -0.96783304 -1.9966428
0.9791854 -0.96755314 -1.9962775
0.98008984 -0.96783119 -1.9955202
0.98100239 -0.96848202 -1.9945012
0.98191923 -0.96922606 -1.9934183
0.98282492 -0.96950519 -1.9926571
0.98371953 -0.96959686 -1.9920301
0.98461252 -0.96931374 -1.9916635
0.98549622 -0.96893924 -1.9913633
0.98637867 -0.968472 -1.9911317
0.98725986 -0.96809906 -1.9908334
1.0012902 -0.95763493 -1.9891697
1.0021883 -0.95772672 -1.9885426
1.0030866 -0.95781779 -1.9879143
1.0039774 -0.9576295 -1.9874837
1.0048617 -0.95725542 -1.9871823
1.0057437 -0.956788 -1.9869506
1.00662 -0.95613408 -1.9868433
1.0074995 -0.95547807 -1.9867413
1.0083721 -0.95473212 -1.9867013
1.0092496 -0.95407784 -1.9866011
1.0101217 -0.95323664 -1.9866273
1.0109913 -0.95239812 -1.9866542
1.0118628 -0.95146161 -1.9867463
1.0127317 -0.95052695 -1.9868382
1.0135911 -0.94931495 -1.9871227
1.0144403 -0.94791037 -1.9875423
1.0152907 -0.94677144 -1.9877837
1.0161676 -0.94532853 -1.9882741
1.0170312 -0.94406629 -1.9886231
1.0178841 -0.94289738 -1.9889034
1.0187634 -0.94155085 -1.9893264
0.90924394 -0.97696269 -1.9724118
0.91013139 -0.97675163 -1.9719981
0.86388695 -0.94420314 -1.9558624
0.8726452 -0.94535542 -1.9571105
0.91102237 -0.97653544 -1.9715806
0.92235494 -1.0050882 -2.0045242
0.92325109 -1.00518 -2.0038981
0.92413968 -1.0048984 -2.0035315
0.92502683 -1.0045228 -2.0032291
0.92590803 -1.0040555 -2.0029962
0.92678982 -1.0035884 -2.0027597
0.92767251 -1.0032147 -2.0024595
0.92855811 -1.002745 -2.0022259
0.92943406 -1.0021864 -2.0020576
0.93031335 -1.0016258 -2.0018897
0.93119884 -1.001156 -2.0016518
0.93207771 -1.0005959 -2.0014822
0.93295765 -1.0001295 -2.00125
0.93384063 -0.99966097 -2.001014
0.93471611 -0.99900794 -2.0009065
0.93560082 -0.99853897 -2.0006719
0.93648291 -0.99807078 -2.0004404
0.93735731 -0.9974187 -2.0003381
0.93824112 -0.99695003 -2.0001018
0.93912137 -0.99638867 -1.9999329
0.94000053 -0.99582845 -1.9997604
0.9408837 -0.9953599 -1.9995261
0.94176108 -0.99480045 -1.9993572
0.94263881 -0.9942407 -1.9991866
0.94352078 -0.99377328 -1.9989512
0.94440407 -0.9932102 -1.9987856
0.9452858 -0.99274284 -1.9985501
0.94616753 -0.99227542 -1.998315
0.94704849 -0.9918083 -1.9980814
0.94792926 -0.991247 -1.9979116
0.94881219 -0.99077845 -1.9976754
0.94968987 -0.9902187 -1.9975063
0.95056671 -0.98965961 -1.9973389
0.95129716 -0.98387784 -2.0008252
0.95218194 -0.98350352 -2.0005252
0.95306122 -0.98284805 -2.000421
0.9539398 -0.98228794 -2.0002508
0.95482063 -0.98182106 -2.0000138
0.95570421 -0.98135263 -1.9997824
0.95658624 -0.98088497 -1.9995469
0.95746434 -0.9803251 -1.9993744
0.9583472 -0.97985685 -1.9991391
0.95922881 -0.97929484 -1.9989715
0.96010613 -0.97873539 -1.9988028
0.96099085 -0.97826654 -1.9985651
0.96187288 -0.97779852 -1.9983344
0.96275038 -0.97723937 -1.9981612
0.96363074 -0.97677243 -1.9979302
0.96451187 -0.97621059 -1.9977592
0.96539307 -0.97564906 -1.9975868
0.96627474 -0.97518134 -1.997355
0.9671514 -0.97462237 -1.9971856
0.96803445 -0.97405928 -1.9970131
0.96891099 -0.97350043 -1.9968462
0.96979558 -0.97303116 -1.9966094
0.97067404 -0.97247088 -1.9964426
0.97155374 -0.97191 -1.9962729
0.97243094 -0.97135067 -1.9961053
0.97331297 -0.97088295 -1.9958709
0.9741953 -0.9703207 -1.9957012
0.97507739 -0.96985275 -1.9954642
0.97595727 -0.96929175 -1.9952942
0.97683609 -0.96873158 -1.9951266
0.97771746 -0.96826512 -1.9948895
0.9786036 -0.96798503 -1.9945259
0.97950572 -0.96826392 -1.9937661
0.98041701 -0.96882147 -1.9928142
0.98132855 -0.96937853 -1.9918653
0.98223376 -0.96975011 -1.9910389
0.98312807 -0.9697488 -1.990479
0.9840191 -0.9695611 -1.9900464
0.98490679 -0.96928 -1.9896837
0.98578864 -0.96871799 -1.9895128
0.98666644 -0.96797276 -1.9894741
0.98756182 -0.96815658 -1.9887853
1.0015857 -0.95750511 -1.9872456
1.0024813 -0.95750415 -1.9866863
1.0033786 -0.9575026 -1.9861228
1.0042711 -0.95740682 -1.9856281
1.0051543 -0.95693821 -1.985394
1.0060335 -0.95637667 -1.9852226
1.0069081 -0.95572472 -1.9851213
1.0077859 -0.95506883 -1.9850147
1.0086582 -0.95432311 -1.9849747
1.0095296 -0.95338732 -1.9850708
1.0103961 -0.95245516 -1.9851582
1.0112664 -0.95152062 -1.9852532
1.0121353 -0.95058638 -1.9853437
1.0130037 -0.94965267 -1.9854366
1.0138644 -0.94843984 -1.9857247
1.0147285 -0.94731867 -1.9859455
1.0155663 -0.94609153 -1.9862341
1.0164558 -0.94484681 -1.9865818
1.0173411 -0.94360054 -1.9869316
1.018187 -0.94242996 -1.9872115
1.0190899 -0.94119537 -1.9875604
1.0199242 -0.93972719 -1.9880525
0.89937669 -0.97895867 -1.9824789
0.86249667 -0.90297705 -2.0468149
0.8683759 -0.94367033 -1.9535075
0.911605 -0.9750483 -1.9686775
0.92177504 -1.0055214 -2.0027859
0.9226684 -1.0054271 -2.0022881
0.92356312 -1.0053306 -2.0017948
0.92444605 -1.0048629 -2.00156
0.92533022 -1.0044882 -2.0012569
0.92621094 -1.003927 -2.0010881
0.92709196 -1.0034599 -2.000854
0.92797101 -1.0029939 -2.0006192
0.92885548 -1.0025247 -2.000385
0.92973554 -1.0019634 -2.0002127
0.93061543 -1.0014027 -2.0000436
0.93149638 -1.0009357 -1.9998099
0.93237895 -1.0004673 -1.9995744
0.93325496 -0.99990845 -1.9994041
0.93413502 -0.99934745 -1.9992349
0.93501633 -0.99878573 -1.9990677
0.93589598 -0.99831933 -1.9988333
0.93677628 -0.99775809 -1.998664
0.93766111 -0.99728894 -1.9984251
0.93854028 -0.99682283 -1.9981903
0.93942398 -0.99635404 -1.9979562
0.94029897 -0.99570143 -1.997854
0.94118023 -0.99523419 -1.9976197
0.94206226 -0.99476665 -1.997383
0.94294155 -0.99411148 -1.9972777
0.94382799 -0.99373585 -1.9969782
0.94470978 -0.99326795 -1.9967448
0.94558775 -0.99270797 -1.9965767
0.94646513 -0.99214852 -1.9964054
0.94734746 -0.99168068 -1.9961711
0.94822675 -0.99111992 -1.9959997
0.94910723 -0.99055833 -1.9958316
0.94998765 -0.98999727 -1.9956611
0.95086831 -0.98953015 -1.9954275
0.95174587 -0.9889704 -1.9952588
0.95262551 -0.98840964 -1.9950857
0.95335948 -0.98281407 -1.9984416
0.95424414 -0.98234475 -1.9982044
0.95512021 -0.98169172 -1.9980986
0.95600474 -0.98122275 -1.9978644
0.95688373 -0.98075664 -1.9976299
0.95776486 -0.98019463 -1.9974598
0.95864391 -0.97963434 -1.99729
0.95952606 -0.97916627 -1.9970561
0.96040493 -0.9786061 -1.9968874
0.96128881 -0.97813749 -1.9966503
0.9621681 -0.97767127 -1.9964191
0.96305025 -0.97720331 -1.9961827
0.96392804 -0.97654915 -1.9960773
0.96480852 -0.97608215 -1.9958432
0.96569073 -0.9755196 -1.9956747
0.96657026 -0.97495914 -1.9955014
0.96744889 -0.97449309 -1.995267
0.96833116 -0.9739306 -1.9950969
0.96920937 -0.97337091 -1.994928
0.97009271 -0.97290188 -1.9946928
0.97097224 -0.97234106 -1.9945245
0.97184932 -0.97178203 -1.9943547
0.97273034 -0.97131497 -1.9941185
0.97360748 -0.97066063 -1.9940162
0.97449267 -0.97019088 -1.9937819
0.97537142 -0.9696309 -1.9936099
0.9762519 -0.96916401 -1.9933792
0.97713333 -0.96869695 -1.9931428
0.978019 -0.96832323 -1.9928441
0.97891772 -0.96850884 -1.9921497
0.97982621 -0.96897298 -1.9912642
0.98073328 -0.96943688 -1.9903748
0.98164046 -0.96971601 -1.9896173
0.98254019 -0.96980745 -1.9889939
0.98343229 -0.96971238 -1.9884989
0.98431802 -0.96943176 -1.9881306
0.98520827 -0.96914923 -1.9877657
0.98609072 -0.96877557 -1.9874662
0.98696887 -0.96812248 -1.9873635
0.98786163 -0.96812087 -1.9868037
1.0009799 -0.95719147 -1.9860203
1.0018834 -0.9574703 -1.9852597
1.0027874 -0.95765555 -1.9845684
1.0036864 -0.95783871 -1.9838783
1.004568 -0.957371 -1.9836442
1.0054412 -0.95662451 -1.9836048
1.006319 -0.9559688 -1.9834971
1.0071957 -0.9553141 -1.9833943
1.0080647 -0.95438129 -1.9834875
1.0089408 -0.95372736 -1.9833843
1.0098076 -0.95269805 -1.9835362
1.0106764 -0.95176482 -1.9836292
1.0115436 -0.95083201 -1.9837192
1.0124125 -0.9498986 -1.9838122
1.0132785 -0.94887131 -1.9839686
1.0141438 -0.94774878 -1.98419
1.0150114 -0.94681525 -1.9842823
1.0158689 -0.94550985 -1.9846345
1.0167391 -0.94426727 -1.9849626
1.0176132 -0.9431116 -1.9852425
1.0184854 -0.94185954 -1.9855881
1.0193738 -0.94041991 -1.9860764
1.0202336 -0.93906182 -1.9865001
0.91190869 -0.97621477 -1.9712538
0.90028828 -0.97892022 -1.9819286
0.90620679 -0.97165281 -1.9636598
0.87034732 -0.94142473 -1.951875
0.9213047 -1.0054491 -2.0010006
0.92208934 -1.0058314 -2.0005772
0.92297709 -1.0055505 -2.0002091
0.9238677 -1.0052676 -1.9998467
0.92474878 -1.0048119 -1.9995998
0.92563307 -1.0043544 -1.9993553
0.9265151 -1.0038922 -1.9991192
0.92739159 -1.0033332 -1.9989483
0.9282763 -1.0028639 -1.9987154
0.92915314 -1.0023044 -1.9985448
0.93003494 -1.0017424 -1.9983714
0.93091476 -1.0012759 -1.9981408
0.93179488 -1.0007145 -1.9979688
0.93267375 -1.0001539 -1.9978
0.93355232 -0.99959368 -1.9976298
0.93443316 -0.99912673 -1.9973972
0.93531621 -0.99865836 -1.9971579
0.93619633 -0.99809718 -1.9969879
0.93707609 -0.99753618 -1.9968222
0.93795723 -0.997069 -1.9965841
0.93884081 -0.99660081 -1.9963489
0.93972641 -0.99622506 -1.996048
0.94060469 -0.99566472 -1.9958777
0.94148213 -0.99501127 -1.9957759
0.94236577 -0.99463618 -1.995474
0.94324529 -0.99407542 -1.9953046
0.94412267 -0.99351525 -1.9951328
0.9450044 -0.99304789 -1.9948981
0.94588363 -0.99248707 -1.9947282
0.94676352 -0.99192625 -1.9945589
0.94764489 -0.99145943 -1.9943272
0.948524 -0.99089879 -1.9941562
0.94940317 -0.99033815 -1.9939851
0.95028698 -0.98986936 -1.9937503
0.95116442 -0.98930955 -1.9935803
0.95204699 -0.98874712 -1.9934132
0.95292562 -0.98828119 -1.993176
0.95380187 -0.98762727 -1.9930747
0.95454007 -0.98221791 -1.9962934
0.95542133 -0.98165625 -1.996123
0.95630276 -0.98118901 -1.9958845
0.95718443 -0.9806264 -1.9957153
0.95806181 -0.98006696 -1.9955468
0.95894551 -0.9795981 -1.995312
0.95982432 -0.97903752 -1.9951435
0.96070117 -0.97847849 -1.9949714
0.96158266 -0.97801101 -1.9947368
0.96246552 -0.97754276 -1.9945015
0.96334213 -0.97688907 -1.9943974
0.96422958 -0.97651243 -1.9940957
0.96510577 -0.97595346 -1.993927
0.96598494 -0.975393 -1.9937553
0.96686804 -0.97482979 -1.9935871
0.96774554 -0.97427028 -1.9934171
0.96862531 -0.97380382 -1.9931836
0.96950853 -0.97333521 -1.9929506
0.9703846 -0.97268176 -1.992842
0.97126597 -0.97212023 -1.9926728
0.97215009 -0.97174543 -1.9923754
0.97302788 -0.97118556 -1.9922049
0.97390831 -0.97062415 -1.9920331
0.97478592 -0.97006434 -1.9918658
0.97566807 -0.96959668 -1.9916292
0.97654665 -0.96903634 -1.9914596
0.9774332 -0.96866214 -1.991158
0.9783287 -0.96866077 -1.9905984
0.97922736 -0.96884537 -1.9899098
0.98013598 -0.96921766 -1.9890867
0.98104203 -0.96958876 -1.988263
0.98194152 -0.96977347 -1.9875726
0.98283631 -0.96977222 -1.9870131
0.98373067 -0.96958321 -1.9865808
0.98461914 -0.9693014 -1.9862157
0.98550004 -0.96892846 -1.985914
0.98638612 -0.96855325 -1.985615
0.98726451 -0.96799326 -1.9854479
0.98814827 -0.96761912 -1.9851487
1.0004048 -0.95780903 -1.9841386
1.0012935 -0.95771492 -1.9836442
1.0022011 -0.95808685 -1.9828207
1.0030978 -0.95808405 -1.9822619
1.0039769 -0.95752287 -1.9820904
1.0048528 -0.95686948 -1.9819866
1.0057296 -0.95621485 -1.981881
1.0066036 -0.95546734 -1.9818428
1.0074723 -0.95453328 -1.9819316
1.0083456 -0.95378643 -1.9818935
1.0092164 -0.95294619 -1.9819194
1.0100827 -0.95191783 -1.9820724
1.0109534 -0.95107752 -1.9820971
1.0118223 -0.95004857 -1.9822576
1.012692 -0.9492082 -1.9822825
1.0135565 -0.94808632 -1.9825048
1.0144185 -0.94696689 -1.9827228
1.0152832 -0.94594139 -1.9828809
1.016147 -0.94481951 -1.9831005
1.0170132 -0.94368505 -1.983345
1.0178841 -0.94223559 -1.9838356
1.0187356 -0.94125664 -1.9839714
1.0196346 -0.93982601 -1.9844569
0.91279423 -0.97593242 -1.9708902
0.91372699 -0.97562057 -1.970505
0.86684728 -0.94293398 -1.9530801
0.91954559 -0.9714781 -1.9660825
0.91587371 -0.96678358 -1.9607977
0.9206109 -1.0060463 -1.9995556
0.92150855 -1.0060282 -1.9990083
0.92239702 -1.0058352 -1.9985825
0.9232856 -1.0054646 -1.9982792
0.92416787 -1.0050077 -1.9980338
0.92504954 -1.0045515 -1.9977903
0.92593253 -1.0040946 -1.9975473
0.92681271 -1.0036389 -1.9973034
0.92769301 -1.0030942 -1.9971232
0.92857283 -1.0025501 -1.9969389
0.92945164 -1.0020843 -1.9967062
0.9303335 -1.0015218 -1.996533
0.93121523 -1.001054 -1.9962994
0.93209291 -1.0004942 -1.9961271
0.93297672 -1.0000253 -1.995892
0.93385637 -0.99946469 -1.995726
0.93473834 -0.99899685 -1.9954865
0.93561536 -0.99843735 -1.9953201
0.9364996 -0.99796808 -1.9950858
0.93737692 -0.99740869 -1.994915
0.93826067 -0.99693978 -1.9946787
0.93913829 -0.99638009 -1.9945074
0.94001848 -0.99591297 -1.9942733
0.94090313 -0.99544173 -1.9940363
0.94177806 -0.99488246 -1.9938664
0.94265199 -0.99413449 -1.9938269
0.94353402 -0.99366724 -1.9935933
0.94441497 -0.99301213 -1.993488
0.94529706 -0.99254614 -1.9932554
0.94617331 -0.99198461 -1.9930826
0.94705522 -0.99151719 -1.9928474
0.9479388 -0.99105048 -1.9926136
0.94882309 -0.99067539 -1.9923121
0.94970369 -0.99020809 -1.9920752
0.9505862 -0.98974162 -1.9918431
0.95146239 -0.98908818 -1.9917384
0.95234376 -0.988621 -1.9915012
0.95322472 -0.98805881 -1.9913321
0.95410341 -0.9874984 -1.9911605
0.95498538 -0.98703074 -1.9909259
0.95572096 -0.9816218 -1.994146
0.95660633 -0.98115176 -1.9939108
0.95748162 -0.98049903 -1.9938022
0.95836163 -0.97993785 -1.9936342
0.95924139 -0.97947139 -1.9933975
0.96012485 -0.97900265 -1.9931659
0.96100217 -0.97844303 -1.9929959
0.96188188 -0.97788191 -1.9928242
0.96276164 -0.97732085 -1.9926523
0.9636457 -0.97685164 -1.9924171
0.96452236 -0.97629249 -1.9922463
0.96539837 -0.97563881 -1.9921441
0.96628445 -0.97526354 -1.9918454
0.96716702 -0.97479504 -1.9916089
0.96804541 -0.97414047 -1.9915062
0.96892434 -0.97367424 -1.9912661
0.9698028 -0.97311407 -1.991096
0.97068477 -0.97255188 -1.9909273
0.97156376 -0.9720856 -1.9906944
0.9724437 -0.97152436 -1.990523
0.97332382 -0.97096318 -1.9903516
0.97420722 -0.97049439 -1.9901158
0.97508371 -0.96993536 -1.989947
0.97596884 -0.96946603 -1.9897131
0.97684795 -0.96900028 -1.9894806
0.97773296 -0.96871972 -1.9891123
0.9786337 -0.96881169 -1.9884871
0.97953492 -0.96908915 -1.9877313
0.98044223 -0.96936858 -1.9869772
0.98134422 -0.9696458 -1.9862176
0.98224443 -0.96973771 -1.9855933
0.98313653 -0.96964306 -1.9850976
0.98402816 -0.96945447 -1.9846684
0.98491043 -0.96908116 -1.9843688
0.98579717 -0.96870601 -1.9840682
0.98668092 -0.96833158 -1.9837645
0.98755997 -0.96777046 -1.983598
0.98843068 -0.96693116 -1.9836206
0.98931444 -0.96655661 -1.9833243
0.9998216 -0.95833439 -1.9823265
1.0007159 -0.95824027 -1.9818306
1.0016329 -0.95888901 -1.9808115
1.0025135 -0.95842147 -1.9805773
1.0033879 -0.95776832 -1.9804707
1.0042675 -0.95711148 -1.9803658
1.0051397 -0.95636487 -1.9803261
1.0060142 -0.95561677 -1.9802884
1.0068793 -0.95468533 -1.9803759
1.0077538 -0.95393682 -1.9803357
1.0086217 -0.95300424 -1.9804277
1.0094945 -0.95216233 -1.980455
1.0103625 -0.95122749 -1.9805417
1.0112342 -0.95038676 -1.9805698
1.0120987 -0.94936031 -1.9807239
1.0129652 -0.94833326 -1.9808825
1.013831 -0.94730484 -1.9810365
1.0146916 -0.9461875 -1.9812572
1.0155553 -0.94506681 -1.9814799
1.0164186 -0.94394529 -1.9816995
1.0172862 -0.94280791 -1.981944
1.0181584 -0.94155228 -1.9822892
1.019031 -0.94029725 -1.982635
1.0199041 -0.93923831 -1.9828395
1.0207726 -0.93750125 -1.9835367
0.90531999 -0.97196484 -1.9639951
0.86229694 -0.94521236 -1.9759381
0.89182872 -0.97094524 -1.9675934
0.88170761 -0.9412306 -1.9576594
0.91911346 -1.0056448 -1.9989642
0.92001951 -1.0058931 -1.9982339
0.92092383 -1.0061387 -1.9975038
0.92181677 -1.0060328 -1.9970152
0.92270499 -1.0056623 -1.996712
0.9235844 -1.0052071 -1.9964684
0.92446816 -1.0048385 -1.9961636
0.92534953 -1.0043823 -1.995923
0.9262327 -1.0038357 -1.995736
0.92711341 -1.0033796 -1.9954964
0.92799217 -1.0028358 -1.9953134
0.92887318 -1.0023794 -1.9950699
0.92975163 -1.0018353 -1.9948851
0.93063396 -1.00129 -1.9947037
0.93151736 -1.0009208 -1.9943991
0.9323948 -1.0002722 -1.9942905
0.93327606 -0.99980491 -1.9940565
0.93415666 -0.99933785 -1.9938177
0.93503761 -0.99887085 -1.9935855
0.93591934 -0.99840319 -1.9933498
0.93680036 -0.99784118 -1.9931788
0.93768036 -0.99728 -1.993009
0.93856126 -0.99681181 -1.992772
0.93944103 -0.99624884 -1.9926025
0.94031024 -0.99540645 -1.9926258
0.94117796 -0.99447429 -1.9927181
0.94204217 -0.99344951 -1.9928731
0.94291866 -0.99279547 -1.9927683
0.94380128 -0.99223214 -1.9925972
0.94467932 -0.99167234 -1.9924268
0.94556046 -0.99129838 -1.9921268
0.94644421 -0.99083143 -1.9918919
0.94733077 -0.99045837 -1.9915932
0.9482137 -0.99008405 -1.9912927
0.94910175 -0.98980069 -1.9909251
0.94998801 -0.98951888 -1.9905583
0.95087737 -0.98923993 -1.9901955
0.95176196 -0.98895985 -1.9898312
0.95264387 -0.98849291 -1.9895964
0.95352262 -0.98783779 -1.9894906
0.9544028 -0.98727649 -1.9893206
0.95528448 -0.98680818 -1.9890836
0.95615566 -0.98606277 -1.9890471
0.95690095 -0.980932 -1.9920623
0.95778394 -0.98046345 -1.9918265
0.95866179 -0.97990334 -1.9916575
0.95954084 -0.97934252 -1.9914874
0.96042174 -0.97878104 -1.9913152
0.96130377 -0.97831279 -1.991083
0.96218336 -0.97775161 -1.9909111
0.9630608 -0.97719181 -1.9907426
0.96393949 -0.97663158 -1.9905699
0.9648211 -0.97616392 -1.990334
0.96570188 -0.97560215 -1.9901674
0.9665845 -0.97513384 -1.9899319
0.96746051 -0.97457492 -1.9897599
0.96833938 -0.97401416 -1.9895926
0.9692201 -0.97345245 -1.9894218
0.97010118 -0.97298533 -1.9891832
0.97098553 -0.97251564 -1.988951
0.97186029 -0.97186321 -1.9888434
0.97274208 -0.97139549 -1.9886076
0.97362214 -0.97083426 -1.9884367
0.97450268 -0.97036713 -1.9882041
0.97538352 -0.96980554 -1.9880341
0.9762646 -0.9693383 -1.9877974
0.97714734 -0.96887124 -1.9875643
0.97803628 -0.96868438 -1.9871337
0.97893566 -0.96886879 -1.9864403
0.97983968 -0.96905512 -1.9857522
0.98074138 -0.96933162 -1.9849942
0.98163903 -0.96942353 -1.9843684
0.98253846 -0.96951497 -1.9837424
0.98343295 -0.96941978 -1.9832466
0.98431706 -0.96914047 -1.982885
0.98520696 -0.9688589 -1.9825206
0.98609161 -0.96839064 -1.9822844
0.98697913 -0.96810812 -1.9819198
0.98785716 -0.96754831 -1.9817495
0.98873758 -0.96708012 -1.9815137
0.98959714 -0.96577299 -1.9818654
0.99048001 -0.96530515 -1.9816281
0.99135697 -0.96483999 -1.981395
0.99835694 -0.95923394 -1.9808143
0.99927282 -0.95979226 -1.9798608
1.0001668 -0.95978951 -1.979302
1.0010473 -0.95922786 -1.9791313
1.001924 -0.95866817 -1.9789599
1.0028012 -0.95801282 -1.9788529
1.0036733 -0.95726603 -1.9788134
1.0045477 -0.9565177 -1.9787744
1.0054159 -0.95558351 -1.9788643
1.0062861 -0.9547438 -1.9788903
1.0071545 -0.95380962 -1.978979
1.0080277 -0.95306379 -1.9789417
1.0088955 -0.95212942 -1.9790298
1.0097686 -0.9512862 -1.979055
1.0106375 -0.95035279 -1.979147
1.0115073 -0.94951183 -1.9791702
1.0123734 -0.94848233 -1.9793226
1.0132382 -0.94745624 -1.9794786
1.014102 -0.94643116 -1.9796336
1.0149647 -0.94531131 -1.9798555
1.015833 -0.94419253 -1.9800745
1.0166736 -0.9430573 -1.9803016
1.0175571 -0.94183397 -1.9806128
1.0184278 -0.94067758 -1.980883
1.0193007 -0.93951941 -1.9811571
1.0201337 -0.93834108 -1.9814389
1.0210552 -0.93662655 -1.9821275
0.9011941 -0.97900897 -1.9813174
0.89787203 -0.97159797 -1.9652921
0.88236952 -0.936001 -1.9495718
0.90157223 -0.96594906 -1.9595207
0.86428565 -0.90704679 -2.0346174
0.91941506 -1.0053887 -1.9971588
0.92033434 -1.0059867 -1.9961817
0.92122734 -1.0059696 -1.9956356
0.92211884 -1.0057759 -1.9952081
0.92300737 -1.0054942 -1.9948457
0.92388862 -1.0050374 -1.9945997
0.9247725 -1.0045795 -1.9943593
0.92565024 -1.0040358 -1.9941758
0.92653143 -1.0035794 -1.9939309
0.92741215 -1.0031232 -1.9936874
0.9282937 -1.0025772 -1.993502
0.92917466 -1.0021207 -1.9932609
0.93005586 -1.0015752 -1.9930754
0.93093377 -1.0011204 -1.9928337
0.93181682 -1.0006628 -1.9925908
0.93269515 -1.0001186 -1.9924061
0.93357676 -0.9996618 -1.9921614
0.93445569 -0.99911755 -1.9919798
0.93533766 -0.99864978 -1.9917438
0.93622208 -0.99818039 -1.9915074
0.93709946 -0.99762022 -1.9913399
0.93797553 -0.99696606 -1.991236
0.93884611 -0.9961229 -1.9912578
0.93971115 -0.9951908 -1.9913465
0.94057351 -0.99397492 -1.9916344
0.94143176 -0.99276537 -1.9919196
0.94230527 -0.99201798 -1.9918792
0.94318432 -0.9914571 -1.9917089
0.9440605 -0.990803 -1.9916036
0.94494516 -0.99042863 -1.9913033
0.94582987 -0.99005419 -1.9910029
0.94671452 -0.98967981 -1.9907026
0.94760215 -0.98930252 -1.9903992
0.94848758 -0.9889285 -1.9900982
0.94937128 -0.98864764 -1.9897323
0.9502672 -0.98855519 -1.9892396
0.95115614 -0.98845798 -1.9887418
0.95205158 -0.98836547 -1.9882489
0.9529435 -0.98827142 -1.9877552
0.95382464 -0.98770946 -1.9875849
0.9547056 -0.98724198 -1.9873483
0.95558095 -0.98658842 -1.9872414
0.95645106 -0.98574817 -1.9872692
0.95720327 -0.98089671 -1.9900864
0.95808309 -0.98033559 -1.9899135
0.95896482 -0.97986782 -1.9896805
0.9598431 -0.97930759 -1.9895087
0.96072346 -0.97874528 -1.989338
0.96159804 -0.97809267 -1.9892366
0.96248251 -0.97762322 -1.9889981
0.96335912 -0.97706413 -1.9888285
0.96424091 -0.97659624 -1.9885944
0.96512157 -0.9760344 -1.9884239
0.96599942 -0.97547424 -1.988253
0.96688098 -0.97491217 -1.9880835
0.96776319 -0.97444397 -1.9878467
0.96864033 -0.9738844 -1.987675
0.96952039 -0.97341776 -1.9874437
0.97040117 -0.97285569 -1.9872692
0.97127956 -0.97229528 -1.9870989
0.97216284 -0.97182679 -1.9868666
0.97304207 -0.97126567 -1.9866956
0.97392178 -0.97070444 -1.9865264
0.97480118 -0.97014415 -1.9863565
0.97568452 -0.96976978 -1.9860522
0.97656173 -0.96921015 -1.9858814
0.97744405 -0.96874315 -1.9856507
0.97833365 -0.96864867 -1.9851522
0.97922993 -0.96864659 -1.9845906
0.98013151 -0.968831 -1.9839011
0.98103416 -0.96901608 -1.9832104
0.9819324 -0.96910912 -1.9825886
0.98282975 -0.96910763 -1.9820281
0.98371875 -0.96891987 -1.9815975
0.98461485 -0.96882319 -1.9810991
0.98549539 -0.96845049 -1.9807997
0.98638135 -0.96807635 -1.9805018
0.98726249 -0.96760899 -1.9802662
0.98814785 -0.96713948 -1.9800287
0.98902953 -0.96667171 -1.9797971
0.9899087 -0.96610981 -1.9796268
0.99077827 -0.965271 -1.9796474
0.99164957 -0.96452487 -1.979611
0.99253839 -0.96414888 -1.979309
0.99341989 -0.96377611 -1.9790061
0.99431038 -0.96358687 -1.9785763
0.9951911 -0.96302527 -1.9784068
0.99606794 -0.96246606 -1.9782391
0.99694979 -0.96190262 -1.9780648
0.99782372 -0.96125036 -1.9779592
0.99870551 -0.96068794 -1.9777896
0.99958456 -0.96012664 -1.9776195
1.0004601 -0.95947319 -1.9775176
1.0013366 -0.95881909 -1.9774107
1.002214 -0.95825911 -1.9772418
1.0030882 -0.95750779 -1.9771978
1.0039524 -0.95648164 -1.9773519
1.0048212 -0.9555468 -1.9774418
1.0056897 -0.9546141 -1.9775343
1.0065548 -0.95368272 -1.9776227
1.0074277 -0.9529354 -1.9775819
1.0083017 -0.95209265 -1.9776083
1.0091712 -0.95125139 -1.9776306
1.0100398 -0.95031875 -1.9777231
1.0109105 -0.94947565 -1.9777445
1.0117798 -0.94854534 -1.9778367
1.0126443 -0.94751573 -1.9779912
1.0135082 -0.94648838 -1.9781436
1.0143729 -0.94546098 -1.9782977
1.0152273 -0.94442755 -1.9784575
1.0160878 -0.94312513 -1.9788065
1.0169263 -0.94208109 -1.9789683
1.0178171 -0.94075835 -1.9793508
1.0186864 -0.93969637 -1.979556
1.019565 -0.93844301 -1.9798921
1.0204921 -0.93712592 -1.980396
1.0212922 -0.93554318 -1.9808626
0.92014468 -0.97198671 -1.9671432
0.87014103 -0.94300109 -1.9528491
0.87472725 -0.94530922 -1.9594555
0.86442196 -0.94501781 -1.9729545
0.91973567 -1.0056607 -1.9949883
0.92064446 -1.0059946 -1.9941984
0.92153567 -1.0058888 -1.9937083
0.92242742 -1.0056064 -1.9933425
0.92330992 -1.0052381 -1.9930394
0.92419076 -1.0047817 -1.9927971
0.92507309 -1.0042356 -1.9926136
0.92595482 -1.0038674 -1.9923093
0.92683411 -1.0033226 -1.9921268
0.92771614 -1.0028654 -1.9918827
0.92859858 -1.0024076 -1.9916353
0.92947817 -1.0018628 -1.9914557
0.93035859 -1.0014066 -1.9912102
0.93123823 -1.0009506 -1.9909663
0.93212008 -1.0004039 -1.9907839
0.93299532 -0.99986124 -1.9906014
0.93387973 -0.99940306 -1.9903529
0.93476403 -0.99903363 -1.9900501
0.935642 -0.99848944 -1.9898667
0.93652028 -0.99794447 -1.9896834
0.93739265 -0.99711728 -1.989693
0.93824732 -0.99571705 -1.9901105
0.93911362 -0.9948799 -1.9901359
0.93995881 -0.99319983 -1.9907446
0.94786966 -0.98815161 -1.9892101
0.94875991 -0.9879638 -1.9887798
0.94965506 -0.98786819 -1.9882818
0.95054847 -0.98777401 -1.9877878
0.95143574 -0.98758584 -1.9873565
0.95233774 -0.98777139 -1.9866673
0.95323819 -0.98786271 -1.9860414
0.95412427 -0.98748785 -1.9857417
0.95500392 -0.98702109 -1.9855047
0.95588267 -0.98636478 -1.9853994
0.95675558 -0.98571265 -1.9852936
0.95750356 -0.98076838 -1.9881762
0.95838445 -0.98020655 -1.9880061
0.95926332 -0.97974038 -1.9877697
0.96014595 -0.97927177 -1.9875354
0.96101969 -0.97852451 -1.9874966
0.96189767 -0.97796422 -1.987325
0.96277839 -0.97740251 -1.9871534
0.96365839 -0.97693592 -1.9869158
0.96453935 -0.97637391 -1.9867471
0.96541959 -0.97590697 -1.9865131
0.96629822 -0.97534621 -1.9863411
0.96717781 -0.97478491 -1.9861726
0.96805769 -0.97422332 -1.9859999
0.96893626 -0.97366321 -1.9858317
0.96982121 -0.97328794 -1.9855289
0.97069621 -0.97263473 -1.9854262
0.97157836 -0.9720723 -1.9852518
0.97245955 -0.97160453 -1.9850183
0.97333717 -0.97104442 -1.9848449
0.97421527 -0.97048461 -1.984676
0.97509867 -0.97011054 -1.9843774
0.97598076 -0.96954805 -1.9842062
0.9768616 -0.96908092 -1.9839722
0.97774291 -0.96861422 -1.9837368
0.97863227 -0.96842629 -1.9833033
0.97952366 -0.96833134 -1.982808
0.98042357 -0.96842313 -1.9821829
0.98132151 -0.96851486 -1.9815587
0.98222178 -0.96860719 -1.980935
0.98311532 -0.9685117 -1.9804378
0.98400736 -0.96841639 -1.9799422
0.98489952 -0.96823001 -1.9795153
0.9857859 -0.96794814 -1.9791476
0.98667163 -0.96757412 -1.9788499
0.98755598 -0.96719956 -1.978548
0.98844093 -0.96682376 -1.9782453
0.98931831 -0.96626478 -1.9780775
0.99020064 -0.96579671 -1.9778428
0.99108016 -0.96523571 -1.9776706
0.99196249 -0.9647674 -1.9774363
0.99284261 -0.96420622 -1.9772649
0.9937222 -0.96373916 -1.9770281
0.99459779 -0.96308607 -1.9769264
0.99548131 -0.96261698 -1.9766891
0.99636042 -0.96205604 -1.9765161
0.99723679 -0.96149659 -1.9763471
0.99811578 -0.96093583 -1.9761772
0.99899721 -0.96037334 -1.9760067
0.99987578 -0.9598124 -1.9758371
1.0007507 -0.95915854 -1.9757292
1.0016258 -0.95840955 -1.9756902
1.0024981 -0.95766073 -1.97565
1.0033559 -0.95644915 -1.9759331
1.0042212 -0.95542085 -1.9760861
1.0050877 -0.95448959 -1.9761772
1.0059601 -0.95364714 -1.976202
1.0068278 -0.95271146 -1.9762878
1.0077006 -0.95196587 -1.9762497
1.0086005 -0.95115072 -1.9762528
1.0094405 -0.95018941 -1.9763627
1.0103136 -0.9493559 -1.9763843
1.0111806 -0.94841605 -1.9764745
1.012046 -0.94748503 -1.9765639
1.0129073 -0.94654095 -1.9766566
1.0137773 -0.94552058 -1.9768075
1.0146283 -0.9443922 -1.9770335
1.0154911 -0.94327122 -1.9772534
1.0163611 -0.94206607 -1.9775316
1.017218 -0.94094157 -1.9777523
1.0180858 -0.93978781 -1.97802
1.018949 -0.93852633 -1.9783636
1.0198201 -0.93736702 -1.978634
1.0207008 -0.93592274 -1.9791121
1.0215201 -0.93426198 -1.9797479
0.88065356 -0.93761295 -1.9496796
0.91894019 -0.97089475 -1.9650723
0.86578739 -0.94641298 -1.9587909
0.91456783 -0.97527868 -1.970221
0.91915083 -1.0056847 -1.993547
0.92005283 -1.0058444 -1.9928806
0.92094558 -1.005739 -1.9923923
0.92184001 -1.005634 -1.9919065
0.92272353 -1.0052654 -1.9916021
0.92361081 -1.0048952 -1.9912952
0.92449641 -1.0045255 -1.9909939
0.92537266 -1.0039818 -1.9908088
0.92625809 -1.0036117 -1.9905016
0.9271372 -1.0030668 -1.9903185
0.92802095 -1.0026089 -1.9900782
0.92889822 -1.0021539 -1.9898343
0.92978096 -1.0016067 -1.9896499
0.93065929 -1.0011512 -1.9894056
0.93154073 -1.0006942 -1.9891585
0.93242216 -1.000237 -1.9889146
0.93330258 -0.99969113 -1.9887336
0.93418425 -0.99923396 -1.9884856
0.93506473 -0.99877745 -1.9882426
0.93594503 -0.99832094 -1.9880024
0.93682396 -0.99768627 -1.9878772
0.93770194 -0.99723083 -1.9876349
0.94993478 -0.9870885 -1.9868329
0.9508279 -0.98699385 -1.9863377
0.95172936 -0.98717916 -1.9856466
0.95264179 -0.98773736 -1.9846948
0.95354182 -0.98782909 -1.9840728
0.95442188 -0.98726761 -1.9838986
0.95530272 -0.98680019 -1.9836674
0.95617718 -0.9860509 -1.9836227
0.95704615 -0.98520821 -1.9836469
0.95780611 -0.98063922 -1.9862688
0.95868802 -0.98017079 -1.9860302
0.95956254 -0.97951782 -1.9859284
0.96043956 -0.97895813 -1.9857582
0.96132016 -0.97839618 -1.9855852
0.9621976 -0.97783613 -1.9854144
0.96307635 -0.97727531 -1.9852444
0.9639619 -0.97680515 -1.9850076
0.96483767 -0.97624624 -1.9848379
0.9657197 -0.97568333 -1.9846679
0.96659809 -0.97512317 -1.9844964
0.96747863 -0.97465557 -1.9842612
0.96835291 -0.97400302 -1.9841536
0.96923769 -0.97353363 -1.9839176
0.97011799 -0.97306687 -1.9836817
0.97099823 -0.97259963 -1.983446
0.97187716 -0.97194415 -1.9833432
0.97275656 -0.97147745 -1.9831049
0.97363514 -0.97082269 -1.9829986
0.97451657 -0.97044939 -1.9827003
0.97539634 -0.96988785 -1.9825274
0.97627407 -0.96932763 -1.9823564
0.97715873 -0.96885824 -1.9821234
0.97803712 -0.96829879 -1.9819541
0.97892231 -0.96801841 -1.9815891
0.97981668 -0.9679234 -1.981091
0.98071069 -0.96792203 -1.9805328
0.98160708 -0.96792066 -1.979973
0.98250234 -0.96791923 -1.9794134
0.98339742 -0.9678247 -1.9789178
0.98428899 -0.96773052 -1.978424
0.98518074 -0.96754062 -1.9779904
0.98607039 -0.96735269 -1.9775608
0.98695844 -0.96707034 -1.9771932
0.98784316 -0.96679211 -1.976832
0.98872602 -0.96632469 -1.9765964
0.98961079 -0.96595055 -1.9762973
0.99049258 -0.96548265 -1.9760603
0.99137771 -0.96501261 -1.9758216
0.9922545 -0.96445352 -1.9756539
0.99313599 -0.96398556 -1.9754156
0.99401605 -0.96342415 -1.9752464
0.99489653 -0.96286279 -1.9750775
0.99577528 -0.96239656 -1.9748434
0.99665439 -0.96183509 -1.9746684
0.99753147 -0.96118057 -1.9745626
0.99841058 -0.96061945 -1.9743938
0.99928784 -0.96005911 -1.9742209
1.0001664 -0.95940316 -1.9741191
1.0010366 -0.95865709 -1.974076
1.0019011 -0.95762932 -1.9742295
1.0027605 -0.95641369 -1.9745109
1.0036236 -0.95529288 -1.9747308
1.0045369 -0.95430535 -1.974861
1.0053872 -0.95346272 -1.9748787
1.0062648 -0.9525252 -1.974966
1.007126 -0.95167899 -1.9750015
1.0079741 -0.95082021 -1.9750358
1.0088464 -0.94997656 -1.9750633
1.0097024 -0.94912237 -1.9750994
1.0105901 -0.94820744 -1.9751707
1.0114427 -0.94735092 -1.9752063
1.0123055 -0.94641614 -1.9752991
1.0131714 -0.94538808 -1.9754536
1.0140333 -0.94445002 -1.9755436
1.0148828 -0.94323158 -1.9758306
1.0157442 -0.9421097 -1.976052
1.0166066 -0.94089621 -1.9763315
1.0174699 -0.93986845 -1.976493
1.0183318 -0.93860841 -1.9768345
1.0192186 -0.93726468 -1.9772379
1.0200684 -0.9360007 -1.9775848
1.020954 -0.93435836 -1.9781985
0.91961551 -0.96281695 -1.9592272
0.89156044 -0.97363013 -1.9730748
0.8860504 -0.93871868 -1.9618711
0.88543653 -0.93850613 -1.960602
0.8756085 -0.94493318 -1.9591513
0.92298013 -0.9661963 -1.9620553
0.92035192 -1.0054131 -1.9911978
0.92124176 -1.0053077 -1.9907113
0.92213464 -1.0051138 -1.9902829
0.92302281 -1.0048338 -1.9899181
0.92391413 -1.0045531 -1.9895573
0.9247945 -1.0041851 -1.9892514
0.92567599 -1.003728 -1.9890068
0.92656213 -1.0032685 -1.9887611
0.92744178 -1.002812 -1.9885174
0.92832315 -1.0023549 -1.9882727
0.92920434 -1.0018978 -1.9880298
0.93008447 -1.0014412 -1.9877867
0.93096769 -1.000983 -1.9875385
0.93184799 -1.0005262 -1.9872977
0.93272889 -0.99997938 -1.9871099
0.93360567 -0.99943566 -1.9869289
0.93449068 -0.99906576 -1.9866257
0.93537241 -0.99860734 -1.9863774
0.93624157 -0.9978891 -1.9863157
0.93712568 -0.99751955 -1.9860131
0.95112705 -0.98677278 -1.9844971
0.95205098 -0.98761147 -1.983354
0.95294917 -0.98779601 -1.9826612
0.95384467 -0.98760647 -1.9822334
0.95472407 -0.98713923 -1.9819959
0.95559704 -0.98639184 -1.9819568
0.95646656 -0.98555011 -1.9819798
0.95730686 -0.98377633 -1.98265
0.95810932 -0.98060417 -1.9842947
0.95898533 -0.98004496 -1.9841241
0.95985925 -0.97929716 -1.9840821
0.96073818 -0.97873634 -1.9839126
0.96161926 -0.97826898 -1.9836766
0.96249855 -0.97761303 -1.9835675
0.96337724 -0.97714686 -1.983336
0.96425867 -0.97658426 -1.9831655
0.96513611 -0.97602433 -1.9829912
0.96601629 -0.97546268 -1.9828209
0.96689737 -0.97499496 -1.982585
0.96777397 -0.97443563 -1.9824157
0.96865326 -0.97387451 -1.9822445
0.96953487 -0.97340685 -1.9820077
0.9704197 -0.97293699 -1.9817725
0.97129643 -0.97237736 -1.9816003
0.97217625 -0.97181582 -1.9814332
0.97305292 -0.9712562 -1.9812599
0.97393119 -0.97069567 -1.9810905
0.97481489 -0.97022671 -1.9808555
0.97569418 -0.96966535 -1.9806826
0.9765715 -0.96910572 -1.9805144
0.97745407 -0.96863723 -1.9802769
0.97833133 -0.9680773 -1.980105
0.97921443 -0.96760947 -1.9798697
0.9801017 -0.96742237 -1.9794413
0.98099637 -0.96723521 -1.9790111
0.98188967 -0.96723151 -1.9784493
0.9827835 -0.96713519 -1.9779516
0.983675 -0.96704024 -1.9774572
0.98456568 -0.96685451 -1.9770298
0.98545688 -0.96666616 -1.9765985
0.98634619 -0.96647698 -1.976167
0.98723543 -0.96629125 -1.9757401
0.98812515 -0.96600974 -1.9753734
0.98901367 -0.96582222 -1.974944
0.98989695 -0.96544802 -1.9746431
0.99078441 -0.96507353 -1.9743423
0.9916687 -0.96469903 -1.9740405
0.99255079 -0.96423155 -1.9738059
0.99342942 -0.96367127 -1.9736381
0.99431068 -0.96320343 -1.9733988
0.99518955 -0.96264285 -1.973232
0.99606866 -0.96208155 -1.9730599
0.99694872 -0.96151984 -1.9728876
0.99782628 -0.96095961 -1.9727165
0.99870485 -0.96030354 -1.9726135
0.99958068 -0.95964974 -1.9725044
1.0004575 -0.95908779 -1.9723344
1.0013145 -0.95777935 -1.9726839
1.0021679 -0.95647407 -1.9730279
1.0030291 -0.95525932 -1.9733136
1.003927 -0.9542523 -1.9734519
1.0047874 -0.95331705 -1.9735398
1.0056642 -0.95221364 -1.9737417
1.0065207 -0.95126551 -1.9738383
1.0073816 -0.95033228 -1.9739268
1.0082487 -0.94949037 -1.9739496
1.0090966 -0.94871765 -1.9739343
1.0099727 -0.94788486 -1.9739493
1.0108351 -0.94703376 -1.9739828
1.0117033 -0.94610411 -1.9740686
1.0125808 -0.94517553 -1.9741501
1.0134269 -0.94422698 -1.974252
1.0142837 -0.94310582 -1.9744711
1.015134 -0.94188833 -1.9747579
1.0160091 -0.9406817 -1.9750335
1.0168543 -0.93964458 -1.9751961
1.0176935 -0.9385702 -1.9754089
1.0186056 -0.9371537 -1.9758497
1.0194553 -0.93579328 -1.976266
0.90211177 -0.97908968 -1.9807144
0.89938194 -0.97247475 -1.9655631
0.91973925 -0.96658629 -1.9620157
0.8714779 -0.94622797 -1.9590787
0.87235969 -0.9458459 -1.9587733
0.90742677 -0.97319412 -1.9654309
0.91545224 -0.97491539 -1.9699118
0.91998994 -1.004384 -1.9905695
0.86964875 -0.94519401 -1.9554268
0.90299404 -0.97921813 -1.98008
0.92242819 -1.0045083 -1.9887258
0.9233197 -1.0043173 -1.9883024
0.92420578 -1.0040354 -1.9879344
0.92509663 -1.0037539 -1.9875679
0.92597848 -1.003386 -1.9872643
0.92686629 -1.0030155 -1.9869626
0.9277426 -1.0024713 -1.9867752
0.92862839 -1.0021013 -1.9864742
0.92950737 -1.001645 -1.9862288
0.93039101 -1.0011865 -1.9859827
0.93127352 -1.0007285 -1.9857395
0.9321509 -1.0002729 -1.9854953
0.93303502 -0.99981409 -1.9852487
0.93391418 -0.99935788 -1.985005
0.93479526 -0.99890047 -1.9847596
0.93567348 -0.99835497 -1.9845736
0.93656325 -0.99816227 -1.984152
0.95145732 -0.98748505 -1.9820074
0.95235986 -0.98766983 -1.9813209
0.95325577 -0.98766768 -1.9807605
0.9541418 -0.98729169 -1.9804561
0.95501953 -0.9867301 -1.9802873
0.95588547 -0.98579621 -1.980376
0.9567337 -0.98430538 -1.980854
0.95752698 -0.98094535 -1.9826221
0.95840508 -0.98028934 -1.9825187
0.95927936 -0.97963643 -1.9824126
0.96016055 -0.97907442 -1.9822381
0.96104145 -0.97860718 -1.9820055
0.96192044 -0.97814047 -1.9817677
0.96279782 -0.97748554 -1.9816642
0.9636758 -0.97692502 -1.9814893
0.96455365 -0.97636473 -1.981321
0.9654386 -0.97589445 -1.9810839
0.96631068 -0.97524315 -1.9809765
0.96719468 -0.97477412 -1.9807431
0.96807647 -0.97430581 -1.9805043
0.96895385 -0.97374612 -1.9803342
0.96983731 -0.97327703 -1.9800993
0.97071338 -0.9727177 -1.9799271
0.97159368 -0.97215581 -1.9797568
0.97247362 -0.97159421 -1.9795873
0.97335327 -0.97103268 -1.9794153
0.97423011 -0.97047323 -1.9792455
0.97511172 -0.9700051 -1.9790095
0.97598588 -0.96935213 -1.978902
0.97686857 -0.96888375 -1.9786646
0.97774839 -0.96832252 -1.9784979
0.9786272 -0.96785605 -1.9782584
0.97950649 -0.96729505 -1.9780904
0.9803881 -0.96682739 -1.9778538
0.98127854 -0.96654493 -1.9774858
0.98216635 -0.96635807 -1.9770576
0.98305815 -0.96626234 -1.9765615
0.98395109 -0.96607453 -1.976132
0.98484015 -0.96588749 -1.9757032
0.98573244 -0.9657923 -1.975208
0.98661816 -0.96551108 -1.9748427
0.98751062 -0.96532434 -1.9744138
