# .PCD v0.7 - Point Cloud Data file format
VERSION 0.7
FIELDS x y z
SIZE 4 4 4
TYPE F F F
COUNT 1 1 1
WIDTH 1379
HEIGHT 1
VIEWPOINT 0 0 0 1 0 0 0
POINTS 1379
DATA ascii
0.98444563 -0.86201119 -2.0310652
0.96669275 -0.87213033 -2.0309863
0.95378864 -0.8787722 -2.0312076
0.96604502 -0.87172949 -2.0311167
0.95421034 -0.87817657 -2.0310829
0.96517056 -0.87152767 -2.0310874
0.92967653 -0.89148092 -2.0311365
0.92983484 -0.89071637 -2.0313766
0.95657247 -0.87507731 -2.0310211
0.95703524 -0.87460804 -2.0310874
0.92940634 -0.88975132 -2.0310886
0.96101815 -0.87192744 -2.0310874
0.9822458 -0.85934484 -2.031152
0.95955664 -0.87254608 -2.0311961
0.96022695 -0.87195706 -2.0313916
0.92956734 -0.88763416 -2.0310216
0.97931898 -0.85672534 -2.0310645
0.92959696 -0.88463795 -2.0310612
0.92953414 -0.88361537 -2.0310874
0.92970961 -0.88209951 -2.0311368
0.97734684 -0.85465276 -2.0310178
0.92994434 -0.88110608 -2.0310874
0.93046069 -0.87990034 -2.0310874
0.93081677 -0.87862551 -2.03111
0.97420913 -0.85324156 -2.0310793
0.89452302 -0.89885455 -2.0310874
0.89500123 -0.89863276 -2.0309892
0.93081093 -0.87731946 -2.031143
0.89601362 -0.89711297 -2.0309999
0.89583468 -0.89640337 -2.0310736
0.9307192 -0.87684816 -2.0310874
0.93092036 -0.87614661 -2.0312645
0.97191107 -0.85244715 -2.0311742
0.89543265 -0.89580405 -2.0311656
0.97136003 -0.85204011 -2.0309691
0.93103921 -0.87425244 -2.0310874
0.9317531 -0.87303889 -2.0311134
0.96956891 -0.85107082 -2.0309906
0.89724535 -0.89220792 -2.0310175
0.88625669 -0.89768964 -2.0310178
0.88568997 -0.89715779 -2.0311048
0.88518715 -0.89631879 -2.0310664
0.88572335 -0.89580601 -2.0311813
0.8978833 -0.88977849 -2.0309184
0.89812309 -0.88846338 -2.0309832
0.88557732 -0.89507276 -2.0310583
0.93418765 -0.8674556 -2.0310874
0.96309912 -0.84998178 -2.0312164
0.93546635 -0.86544949 -2.0310812
0.96195757 -0.85006124 -2.0311072
0.96289158 -0.84980953 -2.0310526
0.96051121 -0.84987438 -2.0309463
0.95867491 -0.85001886 -2.0311928
0.8834222 -0.89318317 -2.0310686
0.93695211 -0.86244392 -2.0310268
0.95782965 -0.85030484 -2.031296
0.95598757 -0.85096419 -2.0313418
0.89845979 -0.88397121 -2.0312736
0.93899 -0.86037362 -2.0311837
0.95596409 -0.8505736 -2.0310404
0.93993998 -0.85921896 -2.0311856
0.9404012 -0.85861778 -2.0310874
0.94150257 -0.8577255 -2.0310218
0.94920194 -0.85286117 -2.0313184
0.95132369 -0.85163617 -2.0311365
0.94574487 -0.85446799 -2.0310819
0.94655055 -0.85398316 -2.0310791
0.88152564 -0.89092374 -2.0309572
0.8811481 -0.89033341 -2.0310874
0.89669752 -0.87933522 -2.0310874
0.87909383 -0.88687176 -2.0310874
0.87366652 -0.88709539 -2.031044
0.87246644 -0.88697302 -2.0311179
0.87212861 -0.88615543 -2.0310805
0.87258738 -0.88489288 -2.0310361
0.89132714 -0.87364048 -2.0310874
0.8720789 -0.88405138 -2.0309527
0.87169909 -0.88330072 -2.0310547
0.87131613 -0.88243061 -2.0310757
0.87072569 -0.88165033 -2.0310018
0.87004578 -0.88097823 -2.0310745
0.86965752 -0.88022435 -2.0311003
0.86958551 -0.8794449 -2.0310812
0.88576454 -0.86968136 -2.0310853
0.88464755 -0.86911613 -2.0310652
0.86682749 -0.87868285 -2.0310533
0.86919385 -0.8773247 -2.0310626
0.88066083 -0.8687101 -2.0309916
0.87921464 -0.86901963 -2.0310392
0.86578667 -0.87637389 -2.0310738
0.8751778 -0.86932957 -2.0309739
0.87480104 -0.86883348 -2.0310864
0.86719835 -0.87182689 -2.0310874
0.86790514 -0.87028259 -2.0310874
0.87272698 -0.86710727 -2.0309916
0.8962397 -0.84302211 -2.0310681
0.89711761 -0.84248751 -2.0310936
0.89781678 -0.84190947 -2.0310752
0.89841688 -0.84136331 -2.0310471
0.89564157 -0.84212726 -2.031141
0.89535147 -0.84131444 -2.0310042
0.89585882 -0.84013355 -2.03111
0.90031308 -0.8381831 -2.0310018
0.90072852 -0.83679777 -2.0310926
0.89620233 -0.8390184 -2.0311124
0.89660001 -0.83786964 -2.0310531
0.89976019 -0.83302557 -2.0310874
0.94489616 -0.97058678 -2.0302708
0.94558829 -0.97015214 -2.0304749
0.94616818 -0.96957999 -2.030375
0.93748546 -0.97466767 -2.0307374
0.93966466 -0.97354209 -2.0307374
0.94177783 -0.97230226 -2.0307374
0.94678628 -0.96907717 -2.0307374
0.93537718 -0.97521597 -2.0308712
0.93643367 -0.97494584 -2.0305624
0.94677716 -0.96864218 -2.0303097
0.94726121 -0.96795118 -2.0306492
0.93330622 -0.9755168 -2.0304427
0.93391681 -0.97548664 -2.0307374
0.94732237 -0.9673295 -2.0304716
0.94752467 -0.96676397 -2.0305834
0.93018228 -0.97601753 -2.0303104
0.94750726 -0.96596807 -2.0303011
0.92874634 -0.976331 -2.0307374
0.94789755 -0.96540195 -2.0307374
0.94780093 -0.96484077 -2.0303874
0.9263016 -0.97676826 -2.0307374
0.94807416 -0.96430779 -2.0307374
0.94817638 -0.96378487 -2.0307944
0.94806564 -0.96352065 -2.0305319
0.92458832 -0.97695649 -2.0303338
0.90072137 -0.98974037 -2.0303874
0.90225661 -0.98868811 -2.0303874
0.92167783 -0.97743458 -2.0306666
0.94834232 -0.96208072 -2.0306427
0.8985877 -0.99043691 -2.0306561
0.9034642 -0.98759055 -2.0303874
0.89776915 -0.99064118 -2.0303974
0.91949785 -0.97760975 -2.0302453
0.92061776 -0.97747689 -2.0303252
0.89692312 -0.99078101 -2.0304551
0.89642435 -0.99051708 -2.0307374
0.90569812 -0.98541039 -2.0307374
0.90656859 -0.98454404 -2.0304749
0.91841686 -0.97778088 -2.0303254
0.91904771 -0.97773254 -2.0307374
0.89569348 -0.99054861 -2.0305326
0.90721744 -0.98375946 -2.0303874
0.91767657 -0.97787768 -2.0304575
0.94875735 -0.95989114 -2.0307374
0.89595258 -0.98969281 -2.0307374
0.94877911 -0.95899177 -2.0305099
0.90801513 -0.9826197 -2.0305271
0.91580665 -0.97806883 -2.0305624
0.91486758 -0.97819233 -2.0303874
0.94897497 -0.9584741 -2.0307374
1.0106438 -0.92305052 -2.0303571
1.0115093 -0.92286277 -2.0303607
1.0122392 -0.92253375 -2.0304427
1.012989 -0.92193735 -2.030513
1.0127604 -0.92164761 -2.0308616
0.908728 -0.98155826 -2.0307374
0.91448158 -0.97822374 -2.0307374
1.0102807 -0.92295283 -2.0307374
1.0134583 -0.92091429 -2.0307493
0.89531082 -0.98864883 -2.0307374
0.90974373 -0.98051757 -2.0305624
0.9128499 -0.97854757 -2.0304749
0.91362053 -0.97836578 -2.0305042
0.94896436 -0.95771766 -2.0303874
1.0083731 -0.92344826 -2.030437
1.0092791 -0.92331791 -2.0303874
1.0133197 -0.92051637 -2.0309927
1.0136228 -0.92034137 -2.0308645
0.91081434 -0.97957188 -2.0307374
0.91126096 -0.97929543 -2.0303874
0.91202736 -0.9788729 -2.0302999
0.94916034 -0.95668435 -2.0304959
1.0138929 -0.91944408 -2.0307167
0.89446694 -0.98829734 -2.0303442
1.0068141 -0.92359847 -2.0303874
0.89384222 -0.98757321 -2.0304763
0.94918847 -0.95608783 -2.0303874
1.0058172 -0.92362177 -2.0305939
1.0132875 -0.91831195 -2.0307374
0.94935817 -0.95532721 -2.0305552
1.0046514 -0.92370248 -2.0303874
1.003711 -0.92382371 -2.0305624
0.94955254 -0.95409918 -2.0307374
1.0016928 -0.92406136 -2.0303874
1.0127423 -0.91761661 -2.0306251
0.89287072 -0.98609698 -2.0305369
0.99036419 -0.92988753 -2.0306208
0.99124295 -0.92941713 -2.0305953
0.99961817 -0.9244653 -2.0304115
1.000596 -0.92423844 -2.0302606
1.0123971 -0.91708356 -2.0304251
0.94950891 -0.9531855 -2.0302629
0.98941141 -0.93043947 -2.0304942
0.98957086 -0.92978215 -2.0308139
0.99017704 -0.92943215 -2.0309145
0.99093485 -0.92899466 -2.0309286
0.99195415 -0.92903638 -2.030488
0.99435228 -0.92756385 -2.0304663
0.99426901 -0.92706966 -2.0308101
0.99503684 -0.92703056 -2.030458
0.99797523 -0.92511976 -2.0304434
0.99883753 -0.92476255 -2.0303736
0.89249265 -0.98513263 -2.0303855
0.98840231 -0.9300642 -2.0307269
0.99542981 -0.9262802 -2.0307374
0.99617547 -0.92582178 -2.0307374
0.99678791 -0.92548251 -2.0307374
0.99730271 -0.92559636 -2.0303502
1.0116791 -0.9164269 -2.0302932
0.94963336 -0.95203179 -2.0305624
0.98748714 -0.93049967 -2.030509
0.98831153 -0.92970097 -2.0309322
0.89282 -0.98387438 -2.030329
0.89326346 -0.98417282 -2.0309045
0.89386964 -0.98382282 -2.0309229
0.8956883 -0.98277283 -2.0309231
0.89599144 -0.98259783 -2.0309062
0.89348537 -0.98345721 -2.0304425
0.89668399 -0.98169744 -2.0303874
0.8975535 -0.98124343 -2.0304575
0.89845634 -0.98070359 -2.0306671
0.94959354 -0.95094025 -2.0303926
0.9863627 -0.93012565 -2.0307374
1.0104249 -0.91603398 -2.0305052
0.89905572 -0.98005491 -2.0306907
0.9854793 -0.93042684 -2.0304725
0.98596787 -0.92984164 -2.0308936
0.89954418 -0.97905779 -2.0305262
0.98483062 -0.92984939 -2.0307083
0.90020072 -0.97838855 -2.0305004
0.90089303 -0.97797012 -2.0305681
0.94953632 -0.9500559 -2.0302989
0.90167397 -0.97739029 -2.0306256
0.90250033 -0.97683084 -2.0306923
0.98453355 -0.92945731 -2.0308752
1.0091947 -0.91557807 -2.0302384
0.90319389 -0.97594428 -2.0305009
1.0081501 -0.91548491 -2.0305588
0.90453839 -0.97482669 -2.0306499
0.94938207 -0.94907284 -2.0302999
1.0075545 -0.91543078 -2.0304637
0.9050262 -0.97409648 -2.0303352
0.94922692 -0.94842708 -2.0303874
1.0068015 -0.9153707 -2.0303822
0.90582252 -0.97330844 -2.0306685
1.0060779 -0.91522622 -2.0304017
0.90695059 -0.97171044 -2.0303783
0.93258119 -0.95669895 -2.0302713
0.94897479 -0.9473871 -2.0303874
0.90744722 -0.97113895 -2.0305023
0.93331856 -0.95622754 -2.0304186
0.93386906 -0.955818 -2.0306568
1.0050652 -0.91488296 -2.0303557
0.90787494 -0.97022355 -2.030714
0.90809065 -0.96995431 -2.0309081
0.93067855 -0.95708591 -2.0302322
0.93111384 -0.9573316 -2.0307374
0.93405282 -0.9552266 -2.0303371
1.0043501 -0.91441774 -2.0303273
0.93012238 -0.95716757 -2.0304444
0.93452406 -0.95455348 -2.0304041
0.94873506 -0.94648826 -2.0303874
1.0037696 -0.91444463 -2.0307188
0.93505538 -0.95401704 -2.0306227
0.9809649 -0.92747623 -2.0308986
0.92875218 -0.95695025 -2.0304632
0.93502724 -0.95348507 -2.0302825
0.93565297 -0.95296574 -2.0305748
0.94847721 -0.94569409 -2.0305042
0.98055083 -0.92710906 -2.0309591
1.0033536 -0.91394389 -2.0306826
0.90667057 -0.96963912 -2.0303628
0.93605196 -0.9525848 -2.0307498
0.9061842 -0.96929085 -2.0306132
0.9280805 -0.95697778 -2.0307374
0.93599021 -0.95170152 -2.0304842
0.94815207 -0.94482177 -2.0307374
1.0030608 -0.9133209 -2.0307236
0.92746514 -0.95666295 -2.0302672
0.90549648 -0.96923894 -2.030385
0.9267571 -0.95675236 -2.0307617
0.90494132 -0.96874148 -2.0307374
0.9261024 -0.95636457 -2.0303476
0.93649626 -0.95055431 -2.0306888
0.93687344 -0.95050758 -2.0308073
0.93727261 -0.949974 -2.0309098
1.0031462 -0.91199541 -2.0305889
0.9480598 -0.94364434 -2.0304
1.0027761 -0.91205442 -2.0309019
0.90422362 -0.96885866 -2.0302584
0.90421891 -0.96814823 -2.0309553
0.9250719 -0.95603311 -2.0302844
0.9476729 -0.94285798 -2.0306556
0.90358084 -0.96834916 -2.0304894
0.9244414 -0.95606863 -2.0307374
0.93639129 -0.94916934 -2.0307374
1.0029054 -0.91087431 -2.0307083
0.90326273 -0.96788412 -2.0307343
1.0029399 -0.91002005 -2.0304272
0.92356324 -0.95569426 -2.0304253
0.93624461 -0.94836837 -2.0307603
0.94742906 -0.94219047 -2.0307345
0.90253627 -0.96790725 -2.0303447
0.92308092 -0.95564163 -2.0307374
0.92267537 -0.95526922 -2.0304575
0.93635929 -0.9471671 -2.0309656
0.94744831 -0.94091922 -2.0304964
1.0019823 -0.90927958 -2.0309706
0.94729584 -0.94035208 -2.0305707
0.92145044 -0.95465237 -2.0303192
0.93527079 -0.94698727 -2.0307326
0.94668216 -0.94019681 -2.0309696
0.97638685 -0.92304683 -2.0309567
1.0016323 -0.90867335 -2.0309551
0.93537962 -0.94652027 -2.0308082
0.90032369 -0.96595156 -2.0309963
0.92061412 -0.95433986 -2.0302813
0.93520463 -0.94621712 -2.0308065
0.97547758 -0.92253828 -2.0305681
0.92008984 -0.954337 -2.0305629
0.97586185 -0.9221375 -2.0310595
0.9195205 -0.95395583 -2.0302653
0.93452096 -0.94519734 -2.0307436
0.94701958 -0.93798125 -2.0309715
0.97551185 -0.92153126 -2.0309968
0.89897752 -0.96575356 -2.0303204
0.94769776 -0.93752241 -2.0306752
1.0005848 -0.90686381 -2.0307348
0.91836345 -0.9534741 -2.0303948
0.9476769 -0.93700373 -2.0307395
1.0001429 -0.90635669 -2.030566
0.89828163 -0.96482146 -2.0307424
0.94733989 -0.936786 -2.0308805
0.94796801 -0.9364903 -2.0306842
0.97467422 -0.92092144 -2.03034
0.94774765 -0.93574226 -2.0307806
0.97466815 -0.91979557 -2.0307374
0.91617745 -0.95316106 -2.0309412
0.94737422 -0.93474543 -2.0309086
0.9481048 -0.93455666 -2.0307269
0.91572428 -0.95279014 -2.0304389
0.93319207 -0.94283247 -2.0306873
0.94782889 -0.93448293 -2.0308094
0.99836069 -0.90514928 -2.0307038
0.94869953 -0.933891 -2.0306256
0.91518617 -0.95284414 -2.0307374
0.93325657 -0.94179296 -2.0307479
0.94838822 -0.93335176 -2.0308216
0.99792367 -0.90455031 -2.0304811
0.89602596 -0.96242988 -2.0306776
0.91441208 -0.95243275 -2.0303175
0.93306041 -0.94099098 -2.0305927
0.94924283 -0.93204433 -2.0307357
0.97355998 -0.91752672 -2.0307245
0.91335768 -0.9521783 -2.0304146
0.9494921 -0.93140554 -2.0307114
0.99728686 -0.90390766 -2.0302348
0.89585656 -0.96206427 -2.0308037
0.91282237 -0.95224988 -2.0307572
0.91215378 -0.95198768 -2.0305035
0.94980752 -0.93024218 -2.0306585
0.97318238 -0.91658813 -2.0305061
0.8953681 -0.96153802 -2.0307374
0.93312544 -0.9396261 -2.0307374
0.94945997 -0.9303081 -2.0308127
0.99618846 -0.90332937 -2.0305042
0.89497739 -0.96065867 -2.0307374
0.9108445 -0.95174479 -2.030354
0.93294334 -0.93894666 -2.0306773
0.94917405 -0.92946279 -2.0309684
0.94971621 -0.92935187 -2.0307531
0.99548727 -0.90280354 -2.0302567
0.91013032 -0.95178717 -2.0305624
0.95000464 -0.92891681 -2.0306644
0.97320616 -0.91541773 -2.0307374
0.94993168 -0.92841911 -2.0307374
0.9949407 -0.90268302 -2.0307374
0.99435997 -0.90231222 -2.0304234
0.89467239 -0.95964068 -2.0306559
0.90886772 -0.9515003 -2.0304141
0.93295038 -0.93751585 -2.0307376
0.94955838 -0.92802846 -2.0309386
0.9077096 -0.95144439 -2.0303001
0.93307948 -0.93693632 -2.0307999
0.99322051 -0.90186781 -2.0305219
0.90673071 -0.95170587 -2.0304961
0.97248644 -0.91398412 -2.0305042
0.8946169 -0.95793027 -2.0307374
0.9061445 -0.95188355 -2.0307374
0.933092 -0.9362579 -2.0307374
0.93305349 -0.93568522 -2.0306489
0.97256488 -0.91292697 -2.0308976
0.99271452 -0.90128285 -2.0302761
0.95043796 -0.92570198 -2.0307577
0.99225795 -0.90151286 -2.0307374
0.95092344 -0.92531025 -2.0304649
0.89438474 -0.95696306 -2.030513
0.9034732 -0.95180672 -2.0309353
0.90383756 -0.95146435 -2.0304492
0.93320292 -0.93436801 -2.0307221
0.95065159 -0.92477036 -2.0307374
0.95036763 -0.92453015 -2.0309436
0.99172586 -0.90065193 -2.030725
0.90277481 -0.95164704 -2.0307374
0.97217137 -0.91154176 -2.0307357
0.99126387 -0.90051454 -2.0310259
0.89452076 -0.95589173 -2.0304379
0.90161514 -0.95159525 -2.0305908
0.90229148 -0.95139283 -2.0303397
0.9331556 -0.93356311 -2.0307114
0.95114863 -0.92328876 -2.0304725
0.97192931 -0.91097748 -2.0304861
0.89496356 -0.95526755 -2.0306575
0.89488065 -0.95468408 -2.0303712
0.93360281 -0.93259275 -2.0309277
0.89558554 -0.9540031 -2.030683
0.9002465 -0.95147789 -2.0303905
0.95093817 -0.92234147 -2.0306966
0.89608961 -0.95344269 -2.0307469
0.89860159 -0.95199263 -2.0307267
0.89931524 -0.95163131 -2.0305142
0.9330132 -0.93212485 -2.0306356
0.9722023 -0.90949899 -2.0307646
0.99208015 -0.89842665 -2.0304217
0.8978948 -0.95229459 -2.0307374
0.97203243 -0.90879792 -2.0306499
0.95105767 -0.9210555 -2.0305486
0.9716323 -0.90826929 -2.0302925
0.99151391 -0.89674127 -2.0307405
0.93362206 -0.92982602 -2.0307374
0.97208738 -0.90772092 -2.0307374
0.99186242 -0.8965317 -2.0303767
0.93336588 -0.92916071 -2.030364
0.97189522 -0.90691149 -2.0305169
0.99157012 -0.89591163 -2.0306439
0.93400955 -0.92874724 -2.0307286
0.93375921 -0.92805684 -2.0306504
0.95096886 -0.91795087 -2.0307374
0.97213989 -0.90552652 -2.0306389
0.99162501 -0.89457691 -2.0306804
0.95075023 -0.91784292 -2.0309639
0.93331718 -0.92731464 -2.0305321
0.97228134 -0.90466529 -2.030709
0.99162304 -0.89343667 -2.0307906
0.93302214 -0.92625958 -2.0305624
0.95072055 -0.91604143 -2.0309632
0.95105511 -0.91598809 -2.030623
0.97204149 -0.90373302 -2.0304463
0.93311936 -0.92580533 -2.0307374
0.95091814 -0.91532737 -2.03074
0.99183267 -0.89169931 -2.0307376
0.95133066 -0.9147191 -2.030395
0.97235674 -0.90229827 -2.0307183
0.99203253 -0.89117956 -2.0305734
0.95086581 -0.91454303 -2.0308428
0.93263978 -0.92441469 -2.0305836
0.99161047 -0.89061493 -2.0310197
0.99190503 -0.89034051 -2.0307362
0.9511652 -0.91366231 -2.0306835
0.95136982 -0.91285223 -2.0305042
0.97277087 -0.9006837 -2.030869
0.99204755 -0.88917994 -2.0304952
0.97230881 -0.90056664 -2.0303888
0.93277055 -0.92296958 -2.030695
0.95090014 -0.91250253 -2.0309932
0.97278416 -0.89986777 -2.0307374
0.99151671 -0.88905251 -2.0309281
0.97257841 -0.89912629 -2.0304337
0.99168944 -0.88815373 -2.0306864
0.9325133 -0.9222914 -2.0305331
0.97298014 -0.89894629 -2.0307944
0.95140916 -0.91121095 -2.0302887
0.9912948 -0.88796818 -2.0309851
0.97279978 -0.89793384 -2.0305624
0.97323638 -0.89799005 -2.0309684
0.99190325 -0.88714463 -2.0304852
0.93214357 -0.92142981 -2.0303874
0.95063132 -0.91063696 -2.0310578
0.95112926 -0.91044992 -2.0305195
0.93270099 -0.92018074 -2.0310006
0.95097506 -0.9098323 -2.0306759
0.97311407 -0.8965342 -2.0307431
0.93224788 -0.92009592 -2.0307255
0.97327071 -0.89594954 -2.0308154
0.99184924 -0.88502109 -2.030571
0.93204457 -0.91946971 -2.0306208
0.95101023 -0.90849566 -2.0306728
0.97330731 -0.89531291 -2.0307374
0.99170804 -0.88448954 -2.0307341
0.95103145 -0.90759659 -2.0306101
0.97313654 -0.89464712 -2.0304618
0.97347981 -0.89421225 -2.0307376
0.99192053 -0.88382757 -2.0303578
0.93187839 -0.91753107 -2.0304537
0.9509064 -0.90673923 -2.0306792
0.97335064 -0.89332956 -2.0305612
0.99166775 -0.88290775 -2.0306981
0.93222046 -0.91654837 -2.0307374
0.93163109 -0.91537833 -2.0305064
0.97355336 -0.89143312 -2.0305915
0.99181515 -0.88109058 -2.0307336
0.97387767 -0.89070082 -2.0307605
0.99209332 -0.88050163 -2.0304608
0.9740268 -0.89025909 -2.0308101
0.99193484 -0.87973171 -2.0305231
0.93149358 -0.91454661 -2.0305805
0.95061344 -0.90360594 -2.0306768
0.93153143 -0.91396594 -2.0307424
0.97405243 -0.88960344 -2.0307374
0.9506948 -0.90255898 -2.0304902
0.97389048 -0.88908958 -2.0305314
0.99108213 -0.87919974 -2.0310001
0.95029056 -0.90234667 -2.0308957
0.93099922 -0.91283095 -2.03035
0.9316259 -0.91271853 -2.0309556
0.95043308 -0.90187752 -2.030745
0.97416276 -0.88769221 -2.0307095
0.95084924 -0.90130472 -2.0302525
0.95037174 -0.90108734 -2.0308657
0.99068522 -0.87781233 -2.0309367
0.95063955 -0.90047199 -2.0305879
0.97405046 -0.88685524 -2.0306537
0.93130887 -0.91128504 -2.0307374
0.97408766 -0.88617212 -2.0307405
0.93097275 -0.91053569 -2.0306244
0.99059147 -0.87624991 -2.030905
0.95040607 -0.89904678 -2.0310566
0.95092124 -0.89928514 -2.0302837
0.99086887 -0.87593615 -2.0307324
0.95084447 -0.89812398 -2.030462
0.93032026 -0.90918154 -2.0303898
0.95084494 -0.89717221 -2.0304751
0.97375154 -0.88488239 -2.0305979
0.97382247 -0.88373756 -2.0307374
0.99078119 -0.87402612 -2.030504
0.97390789 -0.88305312 -2.0308516
0.9302702 -0.90703726 -2.0305183
0.97354633 -0.88277692 -2.0306478
0.99033338 -0.87300295 -2.0306914
0.99022889 -0.87282193 -2.0307598
0.95079911 -0.89533383 -2.0304718
0.93066007 -0.90649575 -2.0307374
0.95058674 -0.89449692 -2.0307374
0.97295189 -0.88128066 -2.0305743
0.93042946 -0.90572828 -2.0303743
0.95075029 -0.89391404 -2.0304658
0.95042783 -0.89418447 -2.0309289
0.98999196 -0.87148994 -2.0306313
0.93091959 -0.90510923 -2.0307031
0.93082893 -0.90457153 -2.030623
0.95058244 -0.89328694 -2.0307374
0.97278672 -0.88040149 -2.0307374
0.98957938 -0.87056994 -2.0307374
0.97293913 -0.87997514 -2.0309646
0.95088047 -0.89214146 -2.0304463
0.97258914 -0.87936896 -2.0309546
0.98938274 -0.86970896 -2.0307374
0.9303242 -0.9036898 -2.0303874
0.97206354 -0.87987447 -2.030513
0.93055373 -0.90323395 -2.0307374
0.93040413 -0.90290463 -2.0307386
0.98925453 -0.86872989 -2.0306413
0.93053818 -0.90243459 -2.0310144
0.95101643 -0.89081359 -2.0303874
0.98838508 -0.86822844 -2.0310416
0.92947763 -0.90094423 -2.0305419
0.98786008 -0.86731911 -2.0310085
0.98816323 -0.86714411 -2.0308108
0.95105565 -0.88826793 -2.0306664
0.97048813 -0.87734878 -2.0306249
0.98859364 -0.86679399 -2.030452
0.92961633 -0.90013784 -2.0308077
0.95129031 -0.88743734 -2.0305755
0.97060007 -0.87627381 -2.0309868
0.97003108 -0.87660229 -2.0306337
0.98773342 -0.86625946 -2.0307014
0.95096201 -0.88740975 -2.0310113
0.92947978 -0.89885414 -2.0305507
0.95166051 -0.88633794 -2.030551
0.98741913 -0.86595708 -2.0307374
0.986682 -0.86597854 -2.0310566
0.95192933 -0.8850742 -2.0306697
0.96905398 -0.87521267 -2.0305042
0.92969227 -0.8974694 -2.0307374
0.95204139 -0.88436866 -2.0307422
0.9523012 -0.88376021 -2.0305786
0.96873808 -0.87430274 -2.0306404
0.98623818 -0.86380988 -2.0308926
0.92954111 -0.89573568 -2.0307374
0.952115 -0.88310677 -2.0309496
0.96813792 -0.87358689 -2.0307014
0.98588818 -0.86320364 -2.0309112
0.95267683 -0.88243949 -2.0305257
0.95237124 -0.88215053 -2.030972
0.95265687 -0.88194525 -2.0307374
0.95290917 -0.88138849 -2.0306993
0.96699333 -0.87300181 -2.0306537
0.92901802 -0.89397305 -2.0303407
0.9293642 -0.89351457 -2.0307369
0.95404422 -0.87977827 -2.0304184
0.96629936 -0.8724106 -2.0307188
0.98553675 -0.86152673 -2.0304384
0.95392108 -0.87923503 -2.0308185
0.98467737 -0.86147785 -2.0307374
0.95445943 -0.87847501 -2.0307026
0.96539396 -0.87203497 -2.0307229
0.98396951 -0.86128032 -2.0309432
0.98370701 -0.86082566 -2.0308747
0.92929751 -0.8918857 -2.0307217
0.95625728 -0.8761484 -2.0304029
0.96395802 -0.87141943 -2.0309067
0.96409881 -0.87182313 -2.0305748
0.92929268 -0.8908273 -2.0309229
0.92889363 -0.89094687 -2.0305276
0.95631081 -0.87567413 -2.0307374
0.95703268 -0.87501365 -2.0307374
0.96289933 -0.87162656 -2.030726
0.95800054 -0.87405074 -2.0308251
0.95843995 -0.87394369 -2.0305963
0.96118915 -0.87222362 -2.0306797
0.96190184 -0.87205809 -2.0305624
0.96239561 -0.87151325 -2.0309904
0.92881119 -0.89012378 -2.0305393
0.95873076 -0.87356561 -2.0307374
0.9289574 -0.88882923 -2.0306394
0.92921603 -0.88824457 -2.0307903
0.98168385 -0.8579523 -2.0307374
0.98130929 -0.85768473 -2.0307374
0.92902827 -0.88765556 -2.0305042
0.98043519 -0.85725874 -2.0309031
0.92945784 -0.8863256 -2.0307374
0.97961009 -0.85649145 -2.0307374
0.92920989 -0.88562119 -2.0305719
0.97904146 -0.85624468 -2.0308919
0.9790076 -0.85586011 -2.0307374
0.92900461 -0.88359082 -2.0305693
0.97839588 -0.85494316 -2.0306587
0.9292326 -0.88230914 -2.0306814
0.97751117 -0.85427958 -2.0307429
0.92932236 -0.88160372 -2.0306199
0.97703522 -0.85416985 -2.0308664
0.9768551 -0.85379809 -2.0306728
0.92964035 -0.88087052 -2.0307465
0.92979324 -0.88000399 -2.0306613
0.97590399 -0.85361052 -2.0308025
0.97494781 -0.85335433 -2.0308719
0.97552693 -0.85330749 -2.0306852
0.93027282 -0.87852502 -2.0306585
0.97506958 -0.85273319 -2.0304639
0.89432001 -0.8992281 -2.0302951
0.89523113 -0.89899194 -2.030319
0.89593828 -0.89851207 -2.0304344
0.89548635 -0.89842308 -2.0308149
0.89318508 -0.89927715 -2.0303438
0.89640176 -0.89755857 -2.0307138
0.89248645 -0.89922905 -2.0305624
0.93006039 -0.87780702 -2.030432
0.97355407 -0.85234034 -2.0308955
0.97394466 -0.85231686 -2.0307755
0.89647692 -0.89663875 -2.0308032
0.89116001 -0.89910686 -2.0303915
0.93030286 -0.876495 -2.0306733
0.97347075 -0.85159975 -2.0304666
0.89647752 -0.89593983 -2.0307374
0.97235882 -0.85202003 -2.0308788
0.97287893 -0.85187101 -2.0307374
0.97217929 -0.85135812 -2.0304127
0.89581949 -0.89526665 -2.0309501
0.9303261 -0.87513411 -2.0305872
0.97135109 -0.85155803 -2.0306337
0.8891173 -0.8988775 -2.0303805
0.89631933 -0.89495957 -2.030705
0.8963728 -0.89419544 -2.0307353
0.93040413 -0.87454629 -2.0305412
0.97051704 -0.85136867 -2.0307367
0.88845742 -0.89878851 -2.0303619
0.89616126 -0.89399201 -2.0309062
0.93072808 -0.87404406 -2.0307312
0.88737261 -0.89855462 -2.0304792
0.88786292 -0.8987807 -2.0302546
0.96983945 -0.85059822 -2.0305119
0.89764142 -0.89235568 -2.0306358
0.93110925 -0.87289798 -2.0305741
0.88662404 -0.89860111 -2.0302711
0.93192589 -0.87213087 -2.0307374
0.88615435 -0.89803052 -2.0306211
0.89799792 -0.8910656 -2.030704
0.93274367 -0.87125456 -2.030987
0.96856815 -0.85023987 -2.0305066
0.93241799 -0.87110311 -2.0306671
0.88565612 -0.89763224 -2.0307374
0.93270826 -0.87049329 -2.0307374
0.93274903 -0.86992705 -2.0306523
0.9674027 -0.85043585 -2.030926
0.96795887 -0.85034919 -2.0307374
0.89818418 -0.89002967 -2.0306666
0.9672038 -0.8498925 -2.0303228
0.88496137 -0.89766967 -2.0303724
0.88471174 -0.89656091 -2.0308456
0.88431466 -0.89679015 -2.0305407
0.89823663 -0.88916802 -2.0307422
0.93313748 -0.86885518 -2.0307312
0.96608943 -0.84958094 -2.0303309
0.89851034 -0.88859659 -2.0306518
0.96516299 -0.84971172 -2.0307355
0.88397688 -0.89598405 -2.0305543
0.88472891 -0.89554065 -2.0308106
0.89845592 -0.88791329 -2.0307677
0.93347359 -0.86744058 -2.0304608
0.9646433 -0.84943902 -2.0306199
0.89883542 -0.88737547 -2.0304761
0.93403769 -0.86685634 -2.0306568
0.9641003 -0.8494615 -2.0307314
0.88437039 -0.89468646 -2.0306742
0.93441236 -0.86644483 -2.0307374
0.93455583 -0.86587238 -2.0305307
0.9637711 -0.84912968 -2.0303912
0.89869827 -0.88667524 -2.0306075
0.93510354 -0.865174 -2.0305588
0.96258366 -0.84931296 -2.0304785
0.96191686 -0.84968406 -2.0307555
0.88388968 -0.89410603 -2.0306597
0.93571258 -0.86414683 -2.0305624
0.96093762 -0.84957623 -2.0305624
0.88391799 -0.89378607 -2.0308869
0.93624932 -0.86332655 -2.0307374
0.93648392 -0.86303294 -2.0308418
0.95952022 -0.84973294 -2.0309725
0.95963585 -0.84947449 -2.0306809
0.89867789 -0.88448036 -2.0305283
0.93593347 -0.86305749 -2.0302818
0.93663388 -0.8624348 -2.0307236
0.88316882 -0.89341027 -2.0307209
0.95878112 -0.84942758 -2.0306773
0.88224298 -0.89276469 -2.0305159
0.89860034 -0.88334042 -2.0302868
0.93697423 -0.86178219 -2.0307374
0.93808067 -0.86089861 -2.0310078
0.95729619 -0.84934723 -2.0303218
0.93712181 -0.86094183 -2.0302844
0.9377296 -0.86052394 -2.0304222
0.93860519 -0.85996991 -2.0305357
0.95569694 -0.85015625 -2.0306304
0.89839733 -0.88248765 -2.0304413
0.9391107 -0.85953259 -2.0306194
0.95504946 -0.8502934 -2.0307374
0.88187599 -0.8918854 -2.0306351
0.93898529 -0.85923201 -2.030201
0.95452535 -0.84994817 -2.0303748
0.94046175 -0.85802281 -2.0305042
0.94404906 -0.85583615 -2.031039
0.95314234 -0.85058618 -2.0308349
0.95387983 -0.85018349 -2.0306246
0.8812083 -0.89125818 -2.0304389
0.89806789 -0.88171023 -2.0305042
0.94191432 -0.85703868 -2.0307374
0.94308972 -0.8562746 -2.0307374
0.94410723 -0.85511088 -2.0304608
0.94508654 -0.85483307 -2.0309694
0.94751137 -0.85343307 -2.0308421
0.94796604 -0.85317057 -2.030828
0.94872379 -0.85273308 -2.030931
0.94963312 -0.85220808 -2.0309744
0.95214951 -0.85096657 -2.0307374
0.95278323 -0.8506642 -2.0307374
0.94477046 -0.85463566 -2.0305624
0.94549072 -0.85413319 -2.0305979
0.9472959 -0.85305983 -2.0303874
0.94936538 -0.85191929 -2.0304646
0.88081133 -0.89059484 -2.0305543
0.89764768 -0.8808074 -2.0302999
0.88086176 -0.88989252 -2.0310647
0.88043982 -0.89013612 -2.0304923
0.89715356 -0.87998068 -2.0306499
0.87929195 -0.88812113 -2.0303001
0.8961513 -0.87856865 -2.0304458
0.87892634 -0.88747424 -2.0303028
0.89545977 -0.87771159 -2.0303874
0.87834978 -0.8868764 -2.0305624
0.87782753 -0.88687545 -2.0303302
0.89480317 -0.87694871 -2.0306208
0.87691611 -0.88685083 -2.030339
0.89441288 -0.87636691 -2.0301948
0.87450039 -0.88709891 -2.0307374
0.87500811 -0.88710374 -2.0303874
0.87374526 -0.88725895 -2.0306089
0.89363348 -0.87562174 -2.0302999
0.87256038 -0.88740838 -2.0307355
0.87287825 -0.88754469 -2.0303042
0.87176025 -0.88764983 -2.0303893
0.87157923 -0.88676476 -2.0308821
0.89221418 -0.87443542 -2.0305042
0.871225 -0.88637459 -2.030601
0.87167662 -0.88589561 -2.0307398
0.89141715 -0.87377906 -2.0306499
0.87196964 -0.88499087 -2.0307155
0.87176561 -0.88443434 -2.0306635
0.89068735 -0.87327546 -2.0303874
0.89001691 -0.87284964 -2.0303755
0.87085938 -0.88268393 -2.0306804
0.88901114 -0.87217283 -2.0303075
0.88852656 -0.87172055 -2.0306437
0.86929798 -0.88141346 -2.0306959
0.88735163 -0.8709197 -2.0304749
0.869362 -0.88117439 -2.0308077
0.86888206 -0.88065362 -2.0304518
0.88679963 -0.87065065 -2.0303128
0.86917901 -0.88010919 -2.0307374
0.88625044 -0.87021142 -2.0305624
0.86914867 -0.87948006 -2.0305605
0.88560653 -0.86995614 -2.0303874
0.86932456 -0.87823188 -2.0306704
0.88454491 -0.86946172 -2.0303814
0.86687088 -0.87901461 -2.0307214
0.8675679 -0.87876689 -2.0307374
0.86855483 -0.87802625 -2.0307558
0.86902946 -0.87779838 -2.0307624
0.88380486 -0.86902416 -2.0305858
0.86603451 -0.87925959 -2.0303347
0.86564255 -0.87845826 -2.0304317
0.88285983 -0.86882842 -2.0304985
0.8818537 -0.86882621 -2.0304301
0.86555755 -0.87709278 -2.0305092
0.88066399 -0.86889994 -2.0305624
0.87990749 -0.86906302 -2.0304153
0.87909389 -0.86924291 -2.0304313
0.86563027 -0.87650347 -2.0304749
0.87723571 -0.869892 -2.0303874
0.87619603 -0.87005115 -2.0304434
0.87513423 -0.86980969 -2.0304258
0.86599267 -0.87513149 -2.0305624
0.86614096 -0.87466937 -2.0307374
0.86637622 -0.87397701 -2.0303874
0.87439626 -0.86897254 -2.0307374
0.86659199 -0.87341714 -2.0304441
0.87388802 -0.86825562 -2.0307374
0.86717379 -0.87201774 -2.0305326
0.87353414 -0.8678537 -2.0307374
0.87295425 -0.86786634 -2.0304031
0.86795747 -0.87050527 -2.0303874
0.87307715 -0.86730921 -2.0309367
0.86815596 -0.8699854 -2.0307374
0.8687709 -0.86923194 -2.0304406
0.8717773 -0.86752278 -2.030442
0.86925143 -0.86873281 -2.030303
0.86936897 -0.86829197 -2.0307374
0.87114561 -0.867212 -2.0307374
0.86985397 -0.86792648 -2.030628
0.87070352 -0.86739796 -2.0306766
0.8952359 -0.84461433 -2.0306897
0.89597392 -0.84431756 -2.0307083
0.89583039 -0.844069 -2.0308223
0.89682186 -0.84376103 -2.0305817
0.89643663 -0.84371901 -2.030817
0.89494997 -0.84376907 -2.0308452
0.89548039 -0.84346282 -2.0309618
0.89763957 -0.84318036 -2.0303247
0.89762563 -0.84262836 -2.0307829
0.89793593 -0.84236729 -2.0307121
0.89447683 -0.84388053 -2.0307205
0.89859992 -0.84167671 -2.0305417
0.89467573 -0.84311903 -2.0308166
0.89500594 -0.84252429 -2.0309172
0.89924568 -0.84089285 -2.0302889
0.89925843 -0.84049869 -2.0307374
0.89410591 -0.84289265 -2.0304761
0.89974338 -0.83994156 -2.0302978
0.89464235 -0.84234273 -2.0307336
0.90007567 -0.83920008 -2.0302768
0.89455265 -0.84176642 -2.030544
0.90023446 -0.83877122 -2.0304375
0.8949002 -0.8413856 -2.0307314
0.90044999 -0.83815253 -2.0304313
0.8953163 -0.84072852 -2.0308781
0.89482057 -0.84069604 -2.0303602
0.90065175 -0.8374241 -2.0303874
0.89541346 -0.83997035 -2.0306847
0.90082425 -0.83679795 -2.0303874
0.89577299 -0.83887482 -2.0304749
0.90094501 -0.83617163 -2.0302508
0.90114439 -0.83562124 -2.0305624
0.89635891 -0.83778596 -2.0305462
0.90114754 -0.83498669 -2.0302963
0.89675653 -0.83705294 -2.0305018
0.90139687 -0.83442008 -2.0305238
0.89706117 -0.83654797 -2.0303874
0.89738464 -0.83605063 -2.0303874
0.90114367 -0.83364713 -2.0303385
0.89802825 -0.83517444 -2.0302925
0.89809644 -0.83504385 -2.0307374
0.89865077 -0.83442247 -2.0302513
0.90070713 -0.83306545 -2.0305448
0.89935488 -0.83368456 -2.0303638
0.90009677 -0.83325851 -2.0303321
0.9370029 -0.97476524 -2.0301681
0.94209129 -0.97214514 -2.0302413
0.93134296 -0.97592854 -2.0306454
0.93219155 -0.97564834 -2.0302124
0.92924565 -0.97614586 -2.0302124
0.92736936 -0.97639608 -2.0302124
0.94787979 -0.96303433 -2.0301106
0.92260075 -0.97723663 -2.0304348
0.89971918 -0.99022108 -2.0303338
0.90257937 -0.98840857 -2.0303874
0.92126435 -0.97737181 -2.0301895
0.94816279 -0.96140796 -2.0301819
0.89609796 -0.99120396 -2.0301948
0.90464813 -0.98646706 -2.0302124
0.94838589 -0.96083492 -2.0303874
0.8951087 -0.99101961 -2.0301175
0.94837558 -0.96016735 -2.0301542
0.89540631 -0.98985106 -2.030303
0.91675305 -0.97795808 -2.0302124
0.91713899 -0.97792649 -2.0303874
1.0137156 -0.92153883 -2.030329
0.90852797 -0.98191178 -2.0303874
1.0143976 -0.92113668 -2.0301363
0.89502901 -0.9890421 -2.0303216
1.0098563 -0.92326772 -2.0302124
1.0141356 -0.9203648 -2.0304847
0.94898689 -0.95705271 -2.0302124
1.0073856 -0.92353827 -2.0305407
1.014474 -0.91907221 -2.030221
1.013782 -0.91828197 -2.0303273
0.94935632 -0.954458 -2.0302124
1.0024815 -0.92396903 -2.0302794
1.0131917 -0.91776127 -2.0303874
0.89316905 -0.98680937 -2.0303874
0.98876941 -0.93066907 -2.0303843
0.99262536 -0.92842281 -2.0305889
0.99331909 -0.92822433 -2.0304594
0.99593109 -0.92664945 -2.0302515
0.98787171 -0.93086421 -2.0302854
0.99655837 -0.92613494 -2.0302937
0.98685932 -0.9308607 -2.0302997
0.89241666 -0.98444581 -2.0302093
0.89430088 -0.98316973 -2.0305836
0.89862537 -0.97953039 -2.0302067
0.98418027 -0.930049 -2.0304222
0.90138996 -0.97701502 -2.0301542
0.90234691 -0.9764871 -2.0303111
0.98293531 -0.92976445 -2.030225
0.90376586 -0.97529697 -2.0302887
0.98264456 -0.92933547 -2.0304062
0.90636575 -0.97256678 -2.0306563
0.94912106 -0.94791168 -2.0301907
0.90628719 -0.97222251 -2.0301473
0.93179786 -0.95697641 -2.0303173
0.90732121 -0.97047937 -2.0302641
1.0038414 -0.91372347 -2.0303359
0.98000866 -0.92721999 -2.0306799
0.9352439 -0.95219892 -2.0301278
0.97915417 -0.92691016 -2.0304666
0.94839311 -0.94450837 -2.0301776
1.003649 -0.91284376 -2.0303185
0.9364422 -0.95116067 -2.0306697
0.93570369 -0.95104814 -2.0303681
0.97843993 -0.9259029 -2.0306177
0.93543911 -0.95012325 -2.0304174
0.93604529 -0.94977325 -2.0306156
0.97817743 -0.92544824 -2.0306861
1.0033588 -0.91061115 -2.0301871
0.93475044 -0.94910634 -2.0303874
0.93552029 -0.94886392 -2.0306013
0.94801569 -0.94174069 -2.0301886
0.97700214 -0.92486322 -2.0303085
0.93421024 -0.94854259 -2.030314
0.93577653 -0.94790769 -2.0307233
0.97653681 -0.92423999 -2.0303688
1.0025245 -0.90916866 -2.030462
0.90140516 -0.96744889 -2.0301528
0.90097994 -0.96709061 -2.0302653
0.9220469 -0.95479488 -2.0301597
0.93401647 -0.94771141 -2.0303874
0.93482029 -0.94765145 -2.0305781
0.97591251 -0.92341304 -2.0304463
1.0020742 -0.90831721 -2.030375
0.9479515 -0.93973333 -2.0302229
0.93348759 -0.94680434 -2.0303874
0.94739306 -0.93897808 -2.0306532
0.9341203 -0.94643903 -2.0305851
1.0016004 -0.90747941 -2.0302911
0.94811076 -0.938173 -2.0303719
0.93300581 -0.94596046 -2.0303874
0.9336828 -0.94568127 -2.0305679
0.94858831 -0.93719834 -2.0303893
0.97505718 -0.92179376 -2.030484
1.0010971 -0.90684646 -2.0302708
0.93331015 -0.94488603 -2.0304902
0.94902223 -0.93588394 -2.0303781
0.93393695 -0.94425482 -2.030653
0.89800924 -0.96516603 -2.03016
0.91777074 -0.95307535 -2.0301611
0.93292642 -0.94422507 -2.0303967
0.93371713 -0.94364071 -2.030689
0.97448528 -0.92010319 -2.0304492
0.9994995 -0.9057675 -2.0303428
0.89742953 -0.96462613 -2.0301542
0.9483304 -0.93500167 -2.030632
0.91704142 -0.95290756 -2.0302124
0.97419935 -0.91925794 -2.0305843
0.99879551 -0.90514612 -2.0302124
0.89680833 -0.96364421 -2.0303874
0.91641784 -0.95273137 -2.0301108
0.93232149 -0.94336879 -2.0302827
0.89655656 -0.96327674 -2.0304563
0.93262047 -0.94209129 -2.0304427
0.94986528 -0.93222952 -2.0304196
0.97357208 -0.91860974 -2.0302956
0.94912255 -0.93252361 -2.0307038
0.9501943 -0.93117738 -2.0303805
0.9732253 -0.91790062 -2.0302179
0.89550978 -0.96255726 -2.0302117
0.89487946 -0.96182013 -2.0302124
0.93250644 -0.93995875 -2.0302889
0.91139632 -0.95187998 -2.0305023
0.95052087 -0.92969555 -2.0303433
0.89460844 -0.96096623 -2.0303371
0.97286469 -0.91574228 -2.0303044
0.89432669 -0.96032488 -2.0302491
0.90974444 -0.95147115 -2.0301018
0.95047939 -0.92769879 -2.0305161
0.97283369 -0.91479254 -2.0305452
0.93218309 -0.93789887 -2.0302415
0.97243625 -0.9147526 -2.0301542
0.89424729 -0.95920515 -2.03036
0.93284047 -0.93687224 -2.0306294
0.99368542 -0.90194547 -2.0302124
0.95048481 -0.92648321 -2.0306342
0.90578932 -0.95161831 -2.030293
0.95125043 -0.92605895 -2.0301471
0.89386058 -0.9584114 -2.0301168
0.93217552 -0.93612951 -2.0301201
0.97226179 -0.91310197 -2.0305784
0.90495723 -0.95155615 -2.0303874
0.90426856 -0.95130628 -2.0301759
0.93281072 -0.93507075 -2.0304408
0.97183043 -0.91194344 -2.0303102
0.99226117 -0.90039057 -2.0302672
0.95138502 -0.92394006 -2.0302374
0.90295875 -0.95126557 -2.030169
0.9919107 -0.89953488 -2.030545
0.99232 -0.8992337 -2.0302081
0.90109307 -0.95133257 -2.0301542
0.9325183 -0.93297106 -2.0303671
0.97171098 -0.91028982 -2.0302644
0.95120519 -0.92170703 -2.0304666
0.89531028 -0.9534331 -2.0301535
0.89663875 -0.95249903 -2.0303338
0.89836824 -0.95172423 -2.0303006
0.89907932 -0.95139164 -2.0301118
0.97166103 -0.90949488 -2.0302508
0.99195623 -0.89768922 -2.0304594
0.89579523 -0.95298451 -2.0302124
0.89762092 -0.95192707 -2.0302124
0.93278784 -0.93144667 -2.0305247
0.95131952 -0.92075098 -2.0303209
0.99217302 -0.89741546 -2.0302124
0.93242812 -0.93086886 -2.0302348
0.95116854 -0.92003047 -2.0304203
0.93305707 -0.93024743 -2.0304859
0.95097214 -0.91892725 -2.0306439
0.95141894 -0.91858488 -2.0302048
0.93300867 -0.92841625 -2.0300887
0.97167999 -0.90615487 -2.0302176
0.95127082 -0.91668421 -2.0304284
0.97170848 -0.90495861 -2.0301199
0.99214578 -0.89277488 -2.0302577
0.93237817 -0.92577243 -2.0301542
0.97172254 -0.90283799 -2.0301063
0.97191721 -0.90173876 -2.0302014
0.99229872 -0.88997173 -2.0303085
0.95159662 -0.91335887 -2.0302417
0.97219718 -0.90109009 -2.0303874
0.93225092 -0.92351097 -2.0302651
0.95157629 -0.91211212 -2.0302124
0.93209589 -0.922746 -2.0301208
0.99214047 -0.88788408 -2.0303237
0.93189502 -0.92073154 -2.0303504
0.97274733 -0.89732903 -2.0304706
0.99167913 -0.88653386 -2.030699
0.95139331 -0.90939796 -2.0301671
0.99217254 -0.88584483 -2.0302396
0.93162143 -0.91985023 -2.0302966
0.97268784 -0.89601696 -2.0302353
0.93164575 -0.91882354 -2.0303447
0.97275299 -0.89531773 -2.0301812
0.97282064 -0.89381218 -2.0300982
0.99211729 -0.88256156 -2.0301778
0.93144435 -0.91666275 -2.0302124
0.97306186 -0.89254713 -2.0302823
0.99201941 -0.88175666 -2.0304589
0.95115441 -0.90529007 -2.0301816
0.97333175 -0.89045024 -2.0302737
0.95108634 -0.90321279 -2.0301132
0.97353941 -0.89012825 -2.0303917
0.97338456 -0.88925815 -2.0301149
0.9916243 -0.87908882 -2.0306237
0.93093157 -0.91378915 -2.0302124
0.99116331 -0.87794048 -2.0306478
0.99135697 -0.87693721 -2.0304265
0.93087131 -0.911645 -2.0302515
0.97340018 -0.88592356 -2.0302124
0.99150729 -0.87573618 -2.0303016
0.93066049 -0.91034645 -2.0303874
0.99122685 -0.87493968 -2.0303743
0.97325921 -0.88437104 -2.0303268
0.92999285 -0.90814191 -2.0302746
0.95088381 -0.89625716 -2.0303955
0.93038833 -0.90777504 -2.0306778
0.97279024 -0.8834213 -2.0301006
0.97321308 -0.88243008 -2.0304906
0.99078524 -0.87301576 -2.0302219
0.99048454 -0.87240529 -2.0303843
0.95090586 -0.8947168 -2.0302556
0.95103848 -0.89261836 -2.0301478
0.98969132 -0.86909086 -2.0303345
0.97137237 -0.87912804 -2.0304508
0.92973423 -0.9030177 -2.0301063
0.95097458 -0.89023149 -2.0305181
0.9708972 -0.87832505 -2.0304968
0.98918635 -0.86786628 -2.0304451
0.9512642 -0.88961512 -2.0302024
0.92910022 -0.90130299 -2.0300782
0.95146054 -0.88798219 -2.0301888
0.92922986 -0.90015888 -2.0303817
0.9517256 -0.88710171 -2.0301526
0.92906582 -0.89924324 -2.0301132
0.96948332 -0.8759082 -2.0305381
0.95195258 -0.88562542 -2.0304549
0.98763388 -0.86529386 -2.030401
0.92929149 -0.8981961 -2.0303755
0.9871828 -0.86474597 -2.0305052
0.92901856 -0.89742994 -2.0302165
0.96801752 -0.87499815 -2.0302033
0.98701984 -0.86389208 -2.030427
0.95271975 -0.88323104 -2.0302215
0.92888868 -0.89593917 -2.0301752
0.96729821 -0.87394124 -2.0304463
0.98638028 -0.86291957 -2.030576
0.95300692 -0.88185167 -2.0303874
0.96663964 -0.87431914 -2.0301337
0.96636343 -0.87364954 -2.0303447
0.92928809 -0.89466935 -2.0306437
0.98581785 -0.86203182 -2.0305352
0.9536649 -0.88019121 -2.0305769
0.96565986 -0.87285256 -2.0304072
0.92910677 -0.89295536 -2.0304101
0.96475673 -0.87230587 -2.0303886
0.98499042 -0.86075443 -2.0303056
0.9838351 -0.86034757 -2.0306714
0.98468965 -0.85999972 -2.0301089
0.92884785 -0.89215684 -2.0302124
0.95564598 -0.87662256 -2.030622
0.95692641 -0.87556112 -2.0303366
0.96324885 -0.87203097 -2.0303063
0.92854279 -0.89115977 -2.0301249
0.95752019 -0.87520218 -2.0301883
0.95772088 -0.87461638 -2.0305376
0.95979911 -0.87331599 -2.0302422
0.9829601 -0.858832 -2.0306289
0.98340833 -0.85846937 -2.030282
0.92852986 -0.88927007 -2.0302486
0.98239893 -0.85794359 -2.0304434
0.98182535 -0.85725743 -2.0302334
0.92886293 -0.88683653 -2.0302565
0.98066735 -0.85675168 -2.0303292
0.98008388 -0.85620868 -2.0302935
0.97956073 -0.85560775 -2.030329
0.92877239 -0.88490272 -2.0302322
0.92863584 -0.88389266 -2.0301576
0.9287324 -0.88277113 -2.03017
0.97808385 -0.85396856 -2.0302124
0.97766995 -0.85359442 -2.0301278
0.92930377 -0.88046324 -2.0303583
0.97643256 -0.85306865 -2.0302415
0.92950451 -0.87917757 -2.0302598
0.8967151 -0.89815134 -2.0303352
0.89733773 -0.89757133 -2.0303209
0.89707011 -0.89676625 -2.0305352
0.97461861 -0.85202014 -2.030266
0.89187682 -0.89917111 -2.0302124
0.88994718 -0.89900112 -2.03022
0.97294015 -0.8511498 -2.0302124
0.89691848 -0.89460558 -2.0304546
0.9299916 -0.87587458 -2.0303049
0.89735603 -0.89431143 -2.0303006
0.89725196 -0.89364171 -2.030441
0.97096509 -0.85100603 -2.0303619
0.89794028 -0.89299262 -2.0303032
0.89719868 -0.89298886 -2.0306866
0.93064713 -0.87332755 -2.0303705
0.97035682 -0.85034686 -2.0302091
0.89838016 -0.89192569 -2.0303409
0.89879543 -0.8908546 -2.0303044
0.93169332 -0.87153536 -2.0303209
0.96916658 -0.84992093 -2.0301642
0.88532662 -0.89836174 -2.0301566
0.96659803 -0.85009211 -2.0306325
0.89932537 -0.88812029 -2.0301681
0.88448989 -0.89547658 -2.0307176
0.88359588 -0.89514518 -2.0303538
0.89901978 -0.88612354 -2.0302763
0.88308549 -0.89446759 -2.0301757
0.89897263 -0.88525128 -2.0302215
0.96167934 -0.84927273 -2.030247
0.88267708 -0.89380389 -2.0301878
0.89882869 -0.88416696 -2.0301986
0.95835006 -0.8491106 -2.0302925
0.95528221 -0.84981257 -2.0302279
0.940947 -0.85746318 -2.0303874
0.94130766 -0.8570379 -2.0303175
0.94155329 -0.85667092 -2.0302124
0.95351756 -0.84983611 -2.0300872
0.94222403 -0.85617507 -2.0302124
0.9462285 -0.85354441 -2.0304401
0.94872487 -0.85226828 -2.0305071
0.95132279 -0.85093462 -2.0302124
0.95211285 -0.85047501 -2.0301542
0.89675087 -0.87923747 -2.0301542
0.87575132 -0.88699102 -2.0303874
0.89389944 -0.8758989 -2.0303874
0.87215126 -0.88775545 -2.0302124
0.89294559 -0.87504548 -2.0302124
0.87103093 -0.88787228 -2.0301714
0.87046242 -0.88693035 -2.0302389
0.87086391 -0.88595718 -2.0301728
0.87147433 -0.88530922 -2.030441
0.87109101 -0.88462174 -2.0302007
0.87063819 -0.88387978 -2.0301132
0.88955802 -0.87258685 -2.0302124
0.87032771 -0.88314337 -2.0302756
0.86962515 -0.88229495 -2.0304747
0.87036514 -0.8822118 -2.0306704
0.86895001 -0.88244456 -2.0301981
0.88800907 -0.871472 -2.0302124
0.86862457 -0.88180912 -2.030216
0.86871231 -0.87873089 -2.0303228
0.88503826 -0.86969882 -2.0303874
0.86707765 -0.87939173 -2.0302219
0.86789948 -0.87899119 -2.0302317
0.88333762 -0.86906409 -2.0302398
0.86541629 -0.87759233 -2.0302124
0.8782571 -0.86958289 -2.0301886
0.87804866 -0.86962008 -2.0303874
0.86576366 -0.87583411 -2.0302124
0.87409574 -0.8693192 -2.030206
0.87362885 -0.86869735 -2.0301833
0.86770368 -0.87095201 -2.0304193
0.87102848 -0.8677842 -2.0302229
0.86994237 -0.86826694 -2.0301416
0.89412618 -0.84622037 -2.030256
0.89486456 -0.84584606 -2.0303082
0.89560467 -0.84551799 -2.0302045
0.89629817 -0.84482777 -2.0302668
0.89370584 -0.84549773 -2.0303843
0.89438087 -0.84517491 -2.030539
0.89325458 -0.84480333 -2.0302422
0.89380652 -0.84430909 -2.0304704
0.89825785 -0.84259248 -2.0301397
0.89350414 -0.84351718 -2.0301974
0.89392835 -0.84221232 -2.0301394
0.8943094 -0.84124637 -2.0300906
0.89531243 -0.83948135 -2.0302429
0.89596784 -0.83835703 -2.0303874
0.93568027 -0.97504097 -2.0301392
0.93475837 -0.97519416 -2.0300374
0.93374044 -0.97535264 -2.0300374
0.94687229 -0.96782607 -2.0299823
0.93077534 -0.97585213 -2.0300374
0.94747818 -0.96539086 -2.0300465
0.92809892 -0.97625965 -2.0300696
0.9257099 -0.97667176 -2.0300374
0.92374521 -0.97700226 -2.030067
0.89929843 -0.99042577 -2.0300374
0.9011898 -0.98950171 -2.0300374
0.89531851 -0.9915092 -2.0300443
0.89489049 -0.99030602 -2.0299931
1.0125754 -0.92272729 -2.0300374
1.0131968 -0.92240363 -2.0300374
1.0137839 -0.92202044 -2.0300374
1.0148563 -0.92043746 -2.0300243
0.94866788 -0.95833617 -2.0300374
1.0149091 -0.91975492 -2.0300601
1.008021 -0.92357558 -2.0300374
0.89352459 -0.98765939 -2.0300374
0.98969996 -0.93093556 -2.0300679
0.99072278 -0.93037736 -2.0300822
0.99144053 -0.92998719 -2.0300684
0.99223012 -0.92948818 -2.0300472
0.99298 -0.92902583 -2.0300369
0.99375188 -0.92857558 -2.0300379
0.99432003 -0.92820799 -2.0300374
1.0129673 -0.91713959 -2.0300374
0.8924793 -0.98604006 -2.0300374
0.89230174 -0.98553634 -2.0300374
0.94948953 -0.95275927 -2.0300374
0.9862045 -0.93118834 -2.0300548
1.0111873 -0.91602385 -2.0300374
0.89503521 -0.98234165 -2.0302446
0.98482937 -0.93090308 -2.0300248
0.8933984 -0.9830066 -2.0300014
0.89422381 -0.98247623 -2.0299995
0.89766645 -0.98059916 -2.0300374
0.89800704 -0.98013902 -2.0300124
0.98360896 -0.93039525 -2.0300226
0.89872783 -0.97893745 -2.0300374
0.89921516 -0.97833574 -2.0300233
0.89988506 -0.97790843 -2.0300717
0.90070051 -0.97745419 -2.030128
1.0087657 -0.91542852 -2.0300374
0.90451521 -0.97446448 -2.0300448
0.90571785 -0.97284454 -2.0300374
1.0055192 -0.91491634 -2.0300374
0.933424 -0.95573235 -2.0300374
0.93144345 -0.95685261 -2.0300024
0.92941207 -0.95686293 -2.0300374
0.93448114 -0.95390946 -2.030009
0.97988057 -0.92769814 -2.0303435
0.94861698 -0.94534397 -2.0300374
0.93475044 -0.95266384 -2.0299759
0.97855151 -0.92705095 -2.0300908
1.0039614 -0.91258258 -2.0300374
0.97808677 -0.92655116 -2.0301144
0.93466556 -0.95123345 -2.0299673
1.0037082 -0.91151917 -2.030019
0.90310538 -0.96855778 -2.0300591
0.92555791 -0.95610851 -2.0300374
0.93447632 -0.950477 -2.0300374
0.94820875 -0.94242352 -2.0301013
0.97733217 -0.92573416 -2.0300677
0.92430973 -0.95574045 -2.0300374
0.9339087 -0.94959229 -2.0300374
0.90182835 -0.96750772 -2.0303304
0.92304635 -0.95524997 -2.0300443
0.93360639 -0.94905013 -2.0300353
0.97567534 -0.92386174 -2.0299735
0.89966834 -0.96646464 -2.030071
0.93251497 -0.94736588 -2.029999
0.94890141 -0.93800622 -2.0300837
0.97500497 -0.92275333 -2.0300088
0.9495554 -0.93712342 -2.0300186
0.93206567 -0.94668227 -2.0300097
0.89859051 -0.96573979 -2.0300374
0.91898084 -0.95356327 -2.0300374
0.93272662 -0.94542503 -2.0303543
0.94989014 -0.935449 -2.0300279
1.0005172 -0.90611815 -2.0300188
0.93167478 -0.94593662 -2.029989
0.93173462 -0.9448455 -2.0300374
0.94926322 -0.93486726 -2.0303264
0.9496944 -0.93421417 -2.0301898
0.93173444 -0.94417918 -2.0300374
0.94979906 -0.93334544 -2.030266
0.93184376 -0.9426291 -2.0300527
0.99829531 -0.9045378 -2.0300374
0.95063806 -0.93164861 -2.0300703
0.93221229 -0.94137907 -2.0300741
0.93187416 -0.94207782 -2.0299923
0.91380924 -0.95210344 -2.0300374
0.95094669 -0.93066108 -2.0300076
0.91301394 -0.95188171 -2.0300374
0.93213302 -0.94071591 -2.0299885
0.97284323 -0.9169091 -2.0300374
0.95116198 -0.92905605 -2.030062
0.93222034 -0.93929821 -2.0301726
0.95110029 -0.92859918 -2.0301328
0.95128548 -0.9280417 -2.0300374
0.93187922 -0.93843019 -2.0300221
0.95125639 -0.9272505 -2.0300739
0.99493772 -0.90243489 -2.0300374
0.90834612 -0.95126337 -2.0300629
