# .PCD v0.7 - Point Cloud Data file format
VERSION 0.7
FIELDS x y z
SIZE 4 4 4
TYPE F F F
COUNT 1 1 1
WIDTH 1412
HEIGHT 1
VIEWPOINT 0 0 0 1 0 0 0
POINTS 1412
DATA ascii
-0.070173003 0.057007499 -0.0128875
-0.042091999 0.057001799 -0.0123979
-0.016623 0.056987301 -0.0128875
-0.070873 0.057374399 -0.0128875
-0.040504299 0.0570971 -0.0124753
0.0170945 0.058674999 -0.0128875
0.016802 0.059211399 -0.0128875
-0.074372999 0.059374999 -0.0130086
-0.075072996 0.059847798 -0.0128875
-0.077026002 0.061475001 -0.0128875
0.0145935 0.063050002 -0.0129365
-0.078923002 0.063813999 -0.0128875
-0.0100395 0.063924998 -0.0128875
-0.0095012002 0.064625002 -0.0128875
0.014177 0.064494699 -0.0128875
0.064576998 0.065523297 -0.0128875
-0.080743201 0.066480197 -0.0129053
0.0135982 0.066375002 -0.0128875
0.013477 0.066741601 -0.0129071
0.062302001 0.066760302 -0.0128875
0.0131142 0.068125002 -0.0128875
0.055477001 0.070374399 -0.0128875
0.055136301 0.070580497 -0.0128751
-0.083174899 0.071625002 -0.0130032
-0.0042955698 0.072324999 -0.0128875
-0.0032901 0.073761702 -0.0128875
0.050577 0.073263198 -0.0128875
0.0121726 0.074795097 -0.0128202
-0.084173001 0.075475 -0.0130956
-0.084496699 0.076542899 -0.0129146
0.0124186 0.077318899 -0.0125634
-0.085197702 0.079324998 -0.0128311
0.046284001 0.079324998 -0.0128875
-0.085332699 0.080200002 -0.0128875
0.046002898 0.080282003 -0.0128875
-0.085378297 0.081775002 -0.0128875
0.00087700802 0.081944697 -0.0128875
-0.085222997 0.083525002 -0.0130299
0.0461419 0.083525002 -0.0128875
0.0462717 0.083875 -0.0128875
0.00171809 0.084224999 -0.0128875
0.0145456 0.0858225 -0.0127372
0.047421198 0.085988 -0.0128793
0.015184 0.087250099 -0.0121915
0.048108701 0.087724999 -0.012861
0.0154472 0.088700697 -0.012841
0.049868401 0.089484803 -0.0128795
0.0160976 0.0901158 -0.0128662
-0.085141197 0.090525001 -0.0128875
0.0053914399 0.091637 -0.0128875
0.0170127 0.091977499 -0.0128907
-0.0848611 0.092803203 -0.0129251
0.017412599 0.092804402 -0.0129964
0.052677002 0.093177304 -0.0128875
-0.040213 0.094655 -0.0130917
-0.041144099 0.095700897 -0.0129113
-0.039512999 0.095409401 -0.0128245
-0.0384789 0.095647201 -0.0129252
-0.043747999 0.095775001 -0.0131795
-0.042872999 0.095775001 -0.0130495
-0.042952001 0.0963661 -0.0128867
-0.042435501 0.096207999 -0.0128335
-0.044098001 0.096474998 -0.0130984
-0.0438109 0.097327597 -0.0129249
-0.0360693 0.0975748 -0.0128653
0.00726989 0.097525001 -0.0128875
-0.044000801 0.098224998 -0.0129282
-0.035532501 0.097882599 -0.0128918
0.020940799 0.098575003 -0.0128875
-0.083442703 0.099010997 -0.0128861
-0.034511499 0.098892197 -0.012896
0.057227001 0.0986536 -0.0128875
-0.043689702 0.099158302 -0.0129414
0.0080197901 0.099624999 -0.0128875
-0.0425159 0.100311 -0.0128942
0.058283702 0.100319 -0.0128945
-0.033585899 0.10071 -0.0129234
0.022720801 0.101375 -0.0128875
-0.082184203 0.102075 -0.0128875
-0.041491501 0.103585 -0.0128659
0.060364 0.10365 -0.0128875
0.0093497504 0.104525 -0.0130158
0.024647599 0.104833 -0.0128413
0.060680799 0.104875 -0.0128875
-0.039652798 0.105791 -0.0127803
-0.0395732 0.105699 -0.0122923
-0.039275199 0.10633 -0.0122769
-0.0284731 0.10569 -0.0128824
-0.0278627 0.106347 -0.0129095
0.061427001 0.106275 -0.0130783
0.0259436 0.107177 -0.0129081
0.070993498 0.107423 -0.0129743
0.062669903 0.107675 -0.0128875
0.070527002 0.1075 -0.0129107
0.073886998 0.10742 -0.0129026
0.074376799 0.107588 -0.0128418
0.0103292 0.108017 -0.0128798
0.0265455 0.108242 -0.0130436
0.074646004 0.108145 -0.0129541
0.068776399 0.108375 -0.0128878
-0.026826199 0.109053 -0.0128588
0.075464398 0.109135 -0.0128866
0.0271366 0.109188 -0.0130178
0.067437299 0.109383 -0.0128831
-0.037288502 0.109721 -0.0128425
-0.025706001 0.110152 -0.0129545
-0.024858899 0.110232 -0.0128618
0.064709596 0.110228 -0.0129184
0.066589497 0.110262 -0.013037
0.076221801 0.110296 -0.0128962
0.0112413 0.110475 -0.0128875
0.065627001 0.110329 -0.0129056
-0.078356601 0.111 -0.0129784
-0.0243783 0.111058 -0.0128788
0.028198101 0.111194 -0.0130334
-0.078137398 0.111616 -0.0128875
-0.036356501 0.111689 -0.0128436
-0.024248701 0.111742 -0.0128497
-0.024673 0.11275 -0.0131983
-0.024206899 0.11275 -0.0129125
0.028994501 0.11283 -0.013114
-0.077027299 0.113275 -0.0128875
-0.0238964 0.113557 -0.0129194
-0.035899099 0.113741 -0.0129764
0.077169202 0.113744 -0.0128549
-0.076114804 0.114316 -0.0128666
0.0126051 0.1145 -0.0128875
0.077181302 0.114397 -0.0128875
-0.0224807 0.114753 -0.0128914
0.077091001 0.115725 -0.0128875
0.077078097 0.116425 -0.0128875
0.030675299 0.11642 -0.0131189
0.031143401 0.117485 -0.0128585
0.077074803 0.117475 -0.0128875
-0.034710299 0.118232 -0.0129497
-0.020796999 0.118174 -0.0128592
0.031367902 0.118187 -0.0130138
-0.073322996 0.118663 -0.0128875
-0.034011401 0.118997 -0.0128933
-0.033688501 0.11975 -0.0128319
0.031724501 0.119925 -0.0128875
-0.019772001 0.120273 -0.012889
0.064645603 0.120787 -0.0124347
0.031723201 0.120625 -0.0128875
0.063874297 0.121693 -0.0129139
0.063148797 0.121849 -0.0128071
0.062880501 0.122657 -0.0128489
0.065449499 0.122827 -0.0122877
-0.018043401 0.123075 -0.0128875
0.065317303 0.12303 -0.0127903
-0.069179296 0.123425 -0.0130009
0.018727001 0.123228 -0.0128875
0.0308691 0.123425 -0.0128875
-0.067060903 0.125175 -0.0130031
0.079102002 0.12499 -0.0128875
0.062477 0.125469 -0.0128935
-0.030809199 0.12622499 -0.0128875
0.026776999 0.125999 -0.0128875
0.062477 0.12622499 -0.0129894
0.062314499 0.127363 -0.0129968
0.085194997 0.12710001 -0.0128875
-0.064572997 0.127975 -0.0131516
0.067029901 0.12831999 -0.0128938
0.085229598 0.128226 -0.0128686
0.088376999 0.129327 -0.0129313
0.089109801 0.129375 -0.0128009
0.090003997 0.130845 -0.0128769
-0.028126501 0.131475 -0.0128875
-0.060373001 0.132186 -0.0128875
0.060961001 0.1327 -0.0130077
0.089893699 0.132733 -0.0130541
-0.059323002 0.133046 -0.0128875
-0.0273668 0.13322499 -0.0128875
0.089968197 0.133435 -0.0129406
0.0605345 0.13392501 -0.0128875
-0.0106645 0.13461301 -0.0129013
0.0681144 0.135313 -0.0129357
0.090827003 0.13490801 -0.0128875
-0.026386799 0.135325 -0.0127881
-0.0099597303 0.135675 -0.0128875
0.0915507 0.13552301 -0.0128498
-0.026072999 0.136263 -0.0128875
0.091681503 0.136375 -0.012861
0.068053298 0.136608 -0.0128205
0.091177002 0.13672499 -0.0131207
0.091527 0.13707501 -0.0128939
-0.025722999 0.137949 -0.0128875
0.091060303 0.13824201 -0.012995
-0.055180799 0.138475 -0.0128875
0.090761699 0.138942 -0.0129014
-0.0253739 0.13952699 -0.0128898
-0.0071729901 0.139336 -0.0128875
0.088987298 0.14048301 -0.0128875
-0.0246595 0.1411 -0.0129938
-0.053470001 0.141625 -0.0128875
-0.024556199 0.141625 -0.0128875
-0.080746599 0.141902 -0.012831
0.057046499 0.141975 -0.0128875
-0.081072003 0.142675 -0.0128577
-0.072632201 0.142331 -0.0128971
-0.0243722 0.14285 -0.0128875
-0.080798402 0.14365999 -0.0128488
0.088266298 0.143517 -0.0128666
-0.053794499 0.14367799 -0.01294
-0.080124497 0.144227 -0.0129183
0.086441897 0.144336 -0.0128789
-0.0241975 0.144775 -0.0128875
-0.079272598 0.14521199 -0.01285
-0.061948001 0.14481901 -0.0128875
-0.058615401 0.14480899 -0.0128195
0.083476998 0.14495701 -0.0128875
-0.00087802601 0.14547899 -0.012881
0.0542535 0.145475 -0.0128875
0.071404599 0.145825 -0.0128875
0.076823197 0.145826 -0.0128894
0.082502 0.146042 -0.012928
0.00023996799 0.146525 -0.0128875
0.072263204 0.14688499 -0.0128966
0.074366398 0.14687 -0.0128762
0.077877 0.146872 -0.0128846
0.078230798 0.14707901 -0.0128383
0.00095891999 0.14722501 -0.0128875
-0.0238127 0.14802501 -0.0122644
-0.023601601 0.148755 -0.0123897
-0.070189901 0.149542 -0.0128962
0.0043770098 0.149459 -0.0128875
-0.066851802 0.150263 -0.0128761
0.048477001 0.150171 -0.0128875
0.0458211 0.15158799 -0.0128875
-0.062499002 0.15337899 -0.0128202
-0.0237737 0.15352499 -0.0128875
0.011377 0.153368 -0.0128148
0.012077 0.15387499 -0.0129929
0.040077001 0.15387499 -0.0129586
-0.061718799 0.15408 -0.0128179
0.0129123 0.15426899 -0.0129058
0.013827 0.15463699 -0.0128875
0.014527 0.154836 -0.0128875
0.0150781 0.154925 -0.0128875
0.018377 0.155324 -0.0128875
0.020547001 0.155619 -0.0128654
0.022433201 0.15597799 -0.0129183
0.022926999 0.15601499 -0.0128875
0.023801999 0.15601 -0.0127915
0.024676999 0.156018 -0.0128875
-0.056913599 0.157153 -0.0129747
-0.024148799 0.15801699 -0.0128934
-0.0774206 0.15876099 -0.012853
-0.056123301 0.158969 -0.0127454
-0.074897997 0.159125 -0.0131123
-0.024148 0.15895 -0.0129153
-0.056144301 0.159474 -0.0127514
-0.024148 0.15986601 -0.0130052
-0.071222998 0.160175 -0.0131849
-0.085962899 0.160494 -0.0128875
-0.071572997 0.160309 -0.0128875
-0.070873 0.16055 -0.0129232
-0.0240437 0.160758 -0.0129723
-0.066673003 0.16122399 -0.0128875
-0.065660797 0.161294 -0.012997
-0.024060501 0.161488 -0.0129655
-0.062097602 0.16157199 -0.0128074
-0.024323 0.16245 -0.012989
-0.0249063 0.16355801 -0.0130513
-0.024251999 0.163607 -0.0128811
-0.089804702 0.163642 -0.0128875
-0.024733 0.16437501 -0.0128719
-0.090726599 0.16472501 -0.0128875
-0.0257813 0.16526499 -0.0128928
-0.091545798 0.166262 -0.0129208
-0.091590099 0.167105 -0.0129933
-0.083727598 0.166932 -0.0128679
-0.027134599 0.16680899 -0.0128778
-0.085506901 0.167454 -0.0129283
-0.079972997 0.166949 -0.0128875
-0.0915187 0.167953 -0.0128322
-0.087410502 0.167689 -0.0128366
-0.086622998 0.167576 -0.0128875
-0.085923001 0.167569 -0.0128875
-0.090783603 0.16856299 -0.0128875
-0.089851104 0.168598 -0.0128911
-0.033773001 0.17502899 -0.0128875
-0.0708367 0.177325 -0.012815
-0.069998004 0.177569 -0.0128875
-0.065348797 0.179398 -0.0128808
-0.041092001 0.17996299 -0.0129183
-0.042177401 0.180547 -0.0129307
-0.043186601 0.18070801 -0.0128385
-0.050223 0.18098 -0.0128875
-0.048822999 0.180985 -0.0128875
-0.047423001 0.180911 -0.0128875
-0.043923002 0.180847 -0.0128649
-0.026947999 0.053079199 -0.0121875
0.0231739 0.053156801 -0.0123765
0.0238603 0.052925602 -0.0121875
0.0256395 0.0527661 -0.0121875
0.026776999 0.052879501 -0.0121
0.027687 0.053048 -0.0122575
0.042095501 0.0531337 -0.012264
0.042964499 0.053015999 -0.0121401
0.044014499 0.0528608 -0.0121875
0.044801999 0.052802101 -0.0121875
0.045589499 0.052774299 -0.0121875
0.046797 0.0528544 -0.0121875
0.047615498 0.053061102 -0.0123324
-0.060351599 0.053421699 -0.0121923
-0.0594397 0.053316899 -0.0123042
-0.058623001 0.0532519 -0.0121875
-0.0574563 0.053228401 -0.0121875
-0.054942202 0.053394999 -0.0121017
-0.054072998 0.0534009 -0.0125375
-0.028348001 0.053323999 -0.012275
-0.0277355 0.053150602 -0.012275
-0.0236941 0.053409498 -0.012275
0.028556 0.053341702 -0.0121875
0.0290801 0.053424999 -0.0125375
0.040111199 0.053424999 -0.0125529
0.041251801 0.053352501 -0.0121933
0.048243701 0.053190202 -0.0120786
-0.061073001 0.0535913 -0.0123042
-0.060373001 0.0534692 -0.0125375
-0.0538105 0.053532701 -0.0121875
-0.053046599 0.053704798 -0.0121486
-0.052061401 0.0539371 -0.0121517
-0.022048 0.053684 -0.0121875
0.0220371 0.053685602 -0.0122362
0.029419901 0.053765599 -0.0120723
0.0301596 0.053918701 -0.0123437
0.0385569 0.053971 -0.0121863
0.039377 0.053827699 -0.012161
0.048652001 0.053639501 -0.012592
0.068777002 0.053762101 -0.0124594
0.069228798 0.05381 -0.0121875
-0.062123001 0.053830799 -0.012177
-0.029922999 0.0541359 -0.0125886
-0.020473 0.054193299 -0.0121875
0.021352001 0.054158501 -0.0121168
0.030977 0.054151699 -0.0121875
0.037452001 0.053973898 -0.0125375
0.060377002 0.0539505 -0.0125375
0.062826999 0.0538151 -0.0125375
0.070113599 0.054157 -0.0121875
-0.064572997 0.0544357 -0.0125375
-0.049173001 0.054563001 -0.0121875
0.049566101 0.053963099 -0.0122076
0.050284799 0.0546 -0.0123496
0.055826999 0.0543341 -0.0125375
0.070474699 0.054474998 -0.0123625
-0.0475397 0.0547891 -0.0124208
-0.0469875 0.054825399 -0.012572
-0.031363301 0.0548332 -0.0122494
-0.0193063 0.054808501 -0.0124208
0.020561101 0.055021301 -0.0122895
0.054584499 0.054745201 -0.0121
0.0710757 0.054997101 -0.0121522
-0.067236103 0.055154201 -0.0122763
-0.066578902 0.054820001 -0.0121175
-0.032762401 0.055178098 -0.0122505
0.051129401 0.0549502 -0.0121723
0.0530628 0.055169001 -0.0123042
0.053902 0.0549885 -0.0121875
-0.067659698 0.055446599 -0.012475
-0.044730499 0.0556003 -0.0122501
-0.044023398 0.055832502 -0.0123971
-0.035750799 0.0555893 -0.0124261
-0.034924701 0.0554673 -0.012275
-0.0183511 0.0555351 -0.0123288
0.051977001 0.0552755 -0.0125375
0.052677002 0.055264302 -0.0125375
0.071305901 0.055501599 -0.0124749
-0.068331197 0.0557243 -0.0122876
0.019793401 0.055891 -0.0121875
0.020122999 0.0555395 -0.0121568
-0.043110698 0.0567105 -0.0124185
-0.042683098 0.0562043 -0.0128015
-0.0412791 0.056484401 -0.0128109
-0.040461399 0.0564164 -0.012733
-0.0395329 0.0565245 -0.0122388
-0.0389519 0.056134298 -0.0124854
-0.038581301 0.0560303 -0.0125177
-0.018022999 0.055909902 -0.0125375
-0.017585499 0.056233998 -0.0122971
0.019357 0.056269299 -0.0120798
-0.069297999 0.0563122 -0.0123625
-0.0402213 0.056855101 -0.0123862
-0.043892998 0.056718599 -0.0121036
-0.041173 0.056977 -0.0122703
-0.016703 0.0568128 -0.0123625
0.0186103 0.056799401 -0.0121875
0.071394302 0.056924999 -0.0125375
-0.070406303 0.056820001 -0.0121875
-0.0157614 0.057416599 -0.0122557
-0.071996197 0.057632599 -0.0121563
-0.071047999 0.057244901 -0.0123625
-0.0430036 0.057076499 -0.0121692
-0.042297401 0.0570652 -0.0123634
0.071325503 0.0575675 -0.0123625
-0.0149745 0.058177602 -0.0124133
0.071139999 0.058292799 -0.0122407
-0.072899699 0.058247499 -0.0124015
0.017326999 0.0583198 -0.0122377
-0.074023001 0.059025001 -0.0125921
-0.073714197 0.058664899 -0.0121351
0.070579 0.059374999 -0.0123882
-0.074826397 0.059450001 -0.0122146
-0.075754799 0.0600954 -0.0121875
0.016101999 0.060355902 -0.0123625
0.069526002 0.061124999 -0.0125558
-0.076825798 0.060947601 -0.012192
-0.0127935 0.061037999 -0.0123159
0.0156089 0.0611047 -0.012087
-0.0772494 0.0614135 -0.0123114
-0.012465 0.061418399 -0.0122792
-0.077698402 0.061850801 -0.0122429
0.0151676 0.061866399 -0.012123
0.069310904 0.0620251 -0.0121632
-0.0784043 0.062707298 -0.0121875
-0.0106608 0.062956601 -0.012068
-0.0791324 0.063732103 -0.0121175
-0.0100459 0.063766398 -0.0123695
0.068224303 0.063691802 -0.0120475
0.0144286 0.064099997 -0.0121875
0.067580603 0.064052999 -0.0122606
0.066474997 0.064741097 -0.0121521
-0.079909399 0.064935103 -0.0120189
0.0142503 0.064925 -0.0121875
0.065864801 0.064953201 -0.0123784
-0.080286302 0.0656045 -0.0124691
0.065486997 0.065370701 -0.0120475
0.0138603 0.065849997 -0.0125375
0.064716399 0.0657195 -0.0122142
0.064168602 0.065978497 -0.0122018
-0.080981299 0.066594198 -0.0123275
0.063001998 0.066471599 -0.012313
0.063625701 0.0662513 -0.0120708
-0.0082229897 0.066584699 -0.0123625
0.062378399 0.066761002 -0.0120709
0.061776999 0.067043997 -0.0123625
-0.0813739 0.067248702 -0.0121884
-0.0076363902 0.067329399 -0.012275
0.061060101 0.067361899 -0.0122264
-0.081679299 0.067765899 -0.0120303
0.0601492 0.067723602 -0.0122272
-0.081910901 0.068420701 -0.0124661
-0.0071729901 0.067894697 -0.0125375
0.0131622 0.068241701 -0.0124208
0.059038501 0.068108201 -0.012276
0.059613001 0.067812897 -0.0120604
-0.0066012102 0.068448499 -0.0121875
0.058439098 0.068374701 -0.0121559
0.057344802 0.069052197 -0.0123606
-0.082458101 0.069456898 -0.0125375
-0.0059242798 0.069332898 -0.0121875
0.0129169 0.069432899 -0.0121875
-0.00555743 0.069875002 -0.0121875
0.056463499 0.069449097 -0.0120163
-0.0829904 0.070358597 -0.0120155
0.0556635 0.0700268 -0.0123163
0.0125363 0.070570603 -0.0125841
0.054912299 0.070433401 -0.012275
-0.083155803 0.070966303 -0.0123975
0.0539895 0.0708583 -0.0121875
-0.0047229999 0.071412899 -0.0125375
0.053236999 0.071288101 -0.0121175
-0.083543703 0.071975 -0.0121875
-0.0044805799 0.071800001 -0.0121875
0.0124176 0.072130598 -0.0120869
0.052677002 0.071660496 -0.0121875
0.052019 0.072114103 -0.0121861
-0.083472997 0.072324999 -0.0127642
-0.083774798 0.072805203 -0.0121989
0.0511503 0.072796702 -0.0122745
-0.0038846401 0.072840698 -0.0122338
-0.083945103 0.073582403 -0.0123292
-0.0031715201 0.073841698 -0.0123042
0.050577 0.073243402 -0.0125375
0.0123938 0.073746704 -0.012312
0.050119299 0.073791802 -0.0120509
0.049759001 0.074074998 -0.0123625
0.049329601 0.074677698 -0.0122755
-0.084384203 0.074862503 -0.0121
-0.0022855301 0.075124197 -0.0120546
0.0122548 0.0757517 -0.0124458
0.048703499 0.075694896 -0.0122047
-0.00148302 0.076560996 -0.0122458
0.048279401 0.076366402 -0.0121796
-0.084719703 0.076525003 -0.0123625
0.0122633 0.076641098 -0.0125232
-0.084911399 0.077225 -0.0121875
-0.00115229 0.077259503 -0.0122575
0.047546301 0.077408403 -0.0121961
-0.00067542499 0.078295603 -0.012319
0.047162302 0.077924997 -0.0123625
-0.085066199 0.078450002 -0.0125375
0.046886601 0.0784036 -0.0121875
0.0126593 0.078288302 -0.0124201
-0.085333198 0.079208702 -0.012402
-0.00021805101 0.079292603 -0.0121608
0.0126758 0.078829803 -0.0125051
0.046385001 0.079346597 -0.0123068
0.0128581 0.079347402 -0.0122609
0.0125962 0.079957701 -0.0126502
0.0129139 0.079976603 -0.0123378
0.000163416 0.080207102 -0.0121875
0.046071202 0.080319501 -0.0123084
0.00046834 0.081057698 -0.0122653
0.0132996 0.080873802 -0.0121692
0.045996498 0.08083 -0.0122458
0.0134124 0.0816705 -0.0123492
-0.085676603 0.082008302 -0.0121875
0.00084358 0.081914097 -0.0121875
-0.085625902 0.082708299 -0.0122531
0.046039298 0.082741298 -0.0124105
0.00124593 0.082923897 -0.0121437
0.0138677 0.082861498 -0.012131
0.00153474 0.083802402 -0.0121875
0.0137198 0.083473198 -0.012725
0.0141291 0.083761401 -0.0122133
0.046479601 0.0837529 -0.0121895
-0.085663103 0.0836417 -0.0121875
0.00170706 0.084365003 -0.0121175
0.0143293 0.084488302 -0.0122607
0.046975002 0.084536001 -0.0122948
0.00194798 0.084907398 -0.0121175
0.047341902 0.084925003 -0.0121875
0.0024652099 0.0857177 -0.012138
0.014454 0.085289598 -0.0125952
0.014762 0.085637197 -0.0121129
0.047646001 0.085452303 -0.0121582
-0.085860699 0.0857125 -0.0121875
0.0029680401 0.086504497 -0.0121875
0.0149586 0.0864342 -0.0122386
0.047811698 0.086405002 -0.0125421
0.00335562 0.087155998 -0.0120875
0.048492599 0.087482803 -0.0121305
-0.085778996 0.087288402 -0.0121875
0.0037010601 0.087521903 -0.0123034
0.0039410801 0.088328302 -0.0121437
0.0153314 0.088091202 -0.0125772
0.048652001 0.088131502 -0.0125024
0.0156276 0.088324003 -0.0121373
0.00422434 0.089176796 -0.0122459
0.049352001 0.088775001 -0.0125644
0.0159689 0.089256898 -0.0122781
0.050165899 0.089156002 -0.0121862
-0.085301898 0.090000004 -0.0122803
0.00446381 0.089824997 -0.0121875
0.0046654702 0.090330802 -0.0122375
0.0162798 0.089960203 -0.0123286
0.050598402 0.090035602 -0.012327
0.00499117 0.091080397 -0.0122375
0.016860601 0.090991303 -0.0121875
0.0510525 0.090898 -0.0121875
0.0052604098 0.091794699 -0.0121436
0.017028401 0.091654897 -0.0125461
0.051401298 0.091645002 -0.0123123
0.00550105 0.092100002 -0.0125375
0.0174668 0.092015199 -0.0120385
0.051626999 0.092275001 -0.0127049
-0.084991798 0.092959501 -0.0123042
0.0056956098 0.0928481 -0.0121929
0.017816599 0.092748597 -0.0121213
0.052210301 0.092508897 -0.012391
0.052831098 0.092899702 -0.0121253
-0.084918998 0.093558297 -0.0121875
0.0060230298 0.0936426 -0.0122365
0.0179462 0.093324997 -0.0125375
0.053243801 0.093519099 -0.0122876
0.0183414 0.093746297 -0.0121875
0.0535127 0.094025001 -0.0123625
0.00620683 0.094515003 -0.0120604
0.0186977 0.0946505 -0.01245
0.053885799 0.094696701 -0.0121684
0.00637388 0.094724998 -0.0125375
-0.084530897 0.095658898 -0.012305
0.0065759402 0.095579103 -0.0123625
0.0193241 0.095495 -0.0122202
0.054234099 0.095425002 -0.0123625
-0.039198 0.095867097 -0.0125902
0.0544881 0.095657296 -0.0121201
-0.041473001 0.096124999 -0.0127205
-0.041209001 0.096540503 -0.0124306
-0.040247999 0.096189298 -0.0125531
-0.038472999 0.096436702 -0.0122701
0.019757601 0.096312903 -0.0123273
0.055003799 0.096245401 -0.0123127
-0.042123601 0.096700601 -0.0125577
0.0068472801 0.096599303 -0.0123975
-0.084212802 0.096825004 -0.0125375
-0.037638601 0.096787304 -0.0124053
0.020097701 0.096681297 -0.0120813
0.055749699 0.096576497 -0.0122046
-0.084154204 0.097355299 -0.012103
-0.042796701 0.097418599 -0.0125669
-0.037511799 0.0972827 -0.0120617
-0.036897 0.097518198 -0.0123439
0.0070858402 0.097409502 -0.0123639
0.0203938 0.097393699 -0.0123142
0.056618001 0.097290203 -0.0121683
-0.043080799 0.098224998 -0.0125528
-0.035820998 0.098275602 -0.0121976
0.00745442 0.098360002 -0.0125317
0.0207766 0.098004498 -0.0123458
-0.083869703 0.098349698 -0.0122334
0.021160699 0.098387703 -0.0121024
0.057179101 0.098137498 -0.0120555
-0.035170399 0.0985725 -0.0125342
-0.083656602 0.099131398 -0.0122736
-0.0428853 0.099100001 -0.0125277
-0.034802601 0.098998196 -0.0122276
0.021469399 0.099078797 -0.0123115
-0.043223001 0.099275 -0.0127763
0.0576443 0.099121302 -0.0121435
-0.042573601 0.099624999 -0.0125375
-0.034276702 0.099461399 -0.012159
0.0076608099 0.099209502 -0.0121875
0.021688901 0.099624999 -0.0125375
0.0579064 0.099657901 -0.01238
-0.0831597 0.100245 -0.0125434
-0.042273 0.100037 -0.0122509
-0.033812501 0.10002 -0.0122747
0.0079082102 0.099887498 -0.0122335
0.0220563 0.100045 -0.0122197
0.058460198 0.100028 -0.0122065
-0.0419746 0.101025 -0.0121782
0.0082369503 0.100831 -0.0125375
0.022536 0.100781 -0.0121899
0.059464902 0.100929 -0.0123413
-0.082773 0.101025 -0.0126851
-0.0322381 0.101203 -0.0125812
-0.031289998 0.10098 -0.0122946
-0.031713799 0.101459 -0.0126741
0.0228648 0.101311 -0.0122474
-0.041843101 0.10172 -0.0122452
-0.031460799 0.101879 -0.0127588
0.0232419 0.101847 -0.0122687
-0.0309195 0.1019 -0.0124315
0.00849423 0.102075 -0.0125375
-0.041816801 0.102546 -0.012589
-0.030908501 0.102553 -0.0126216
0.0085914796 0.102851 -0.0121973
0.0235052 0.102425 -0.0125375
0.0602259 0.102705 -0.0121175
-0.082092203 0.102915 -0.0122575
-0.030558901 0.102748 -0.0122223
0.023816099 0.10277 -0.0121872
-0.041296002 0.102885 -0.0121073
-0.030204499 0.103724 -0.0122022
0.024276599 0.10357 -0.0121697
0.0604132 0.103592 -0.0123042
-0.081743203 0.104292 -0.0120708
-0.0402481 0.104577 -0.012197
-0.081401996 0.104525 -0.012596
-0.0300653 0.104436 -0.0124766
-0.039878 0.10516 -0.0123271
0.0249171 0.104537 -0.0120484
-0.028601101 0.105203 -0.0125947
-0.0284697 0.10454 -0.0121762
-0.0275544 0.105451 -0.0125343
0.025149301 0.105225 -0.0123962
0.060734399 0.104886 -0.0123763
-0.0813521 0.105563 -0.0121875
-0.0292877 0.105269 -0.0126295
-0.027822999 0.10575 -0.0127727
0.061049402 0.105539 -0.0121726
-0.080871001 0.10645 -0.0123628
0.061427001 0.106062 -0.0121875
0.0098954104 0.106625 -0.0125375
0.0619982 0.106661 -0.0123275
0.071576998 0.106611 -0.0125375
0.072976999 0.10645 -0.0124712
0.073716298 0.106508 -0.012411
-0.039056599 0.107311 -0.0121849
0.0099787796 0.107056 -0.0124563
0.062258001 0.106975 -0.0121875
0.070133701 0.107146 -0.0125255
0.070985697 0.106496 -0.0123453
0.074794203 0.107208 -0.0124826
-0.080362499 0.107493 -0.0122681
0.062666699 0.107567 -0.0121875
-0.038765501 0.108183 -0.0123602
0.069403 0.107413 -0.0124321
0.0102461 0.108252 -0.0123565
0.068602003 0.108095 -0.0125792
0.063100502 0.108241 -0.0122424
-0.079460703 0.109098 -0.0123079
-0.038463801 0.10918 -0.0123274
-0.026423 0.108725 -0.0125834
0.063333303 0.108725 -0.0125375
-0.025722999 0.109017 -0.0124613
0.0103613 0.108971 -0.0120484
0.063821599 0.109028 -0.0123269
0.075777002 0.109075 -0.0126346
-0.037973002 0.109425 -0.0126651
-0.024872201 0.109025 -0.0122843
0.066672198 0.109203 -0.0123853
0.067027003 0.108873 -0.0123069
0.076434702 0.10923 -0.0122403
-0.037718501 0.110079 -0.0125399
0.064819701 0.109775 -0.0125081
0.066326998 0.109701 -0.0125849
0.065767303 0.109775 -0.0125126
0.076617204 0.109909 -0.0123584
-0.079152197 0.110167 -0.0121937
-0.023929199 0.110137 -0.0122286
0.0110134 0.110405 -0.0122601
0.027825 0.109996 -0.0123315
-0.078635499 0.111101 -0.0124644
-0.0369002 0.111088 -0.0125301
-0.0238027 0.111016 -0.0124418
0.0111078 0.110811 -0.0120682
0.076826997 0.111 -0.0125618
-0.078409299 0.111756 -0.0122006
-0.036741801 0.111964 -0.0122831
0.0115738 0.111875 -0.0122366
-0.077791497 0.112682 -0.0121896
-0.036231302 0.112455 -0.012719
-0.036650401 0.112665 -0.0121554
0.029176001 0.112842 -0.012376
0.077426702 0.112697 -0.0122081
-0.0230598 0.112771 -0.0122131
-0.077176802 0.113322 -0.0124586
-0.036223002 0.113131 -0.0125375
-0.023034999 0.113574 -0.0125436
0.0120774 0.113713 -0.0122617
0.077610999 0.113742 -0.0122592
-0.076245703 0.114442 -0.0121875
-0.022099899 0.11446 -0.0122057
0.0124373 0.114511 -0.012318
-0.075652599 0.1152 -0.012398
-0.036142599 0.11543 -0.0122922
0.0128722 0.115368 -0.0122337
0.030248599 0.114924 -0.0125542
-0.021821501 0.11528 -0.0125375
0.0776136 0.115375 -0.0121722
-0.021596299 0.115375 -0.0121875
-0.075205497 0.116075 -0.0125375
-0.0360936 0.116502 -0.0121246
-0.0212269 0.116425 -0.0124478
0.013354 0.116274 -0.0121177
0.077429399 0.116483 -0.0121771
-0.075039797 0.116588 -0.012417
-0.074779898 0.117188 -0.0122541
-0.035523001 0.117125 -0.01283
0.0139971 0.1173 -0.0123625
0.031284001 0.117384 -0.0121875
0.077281199 0.117347 -0.0122947
-0.035728801 0.117521 -0.012275
-0.0207505 0.1174 -0.0123581
-0.073952399 0.118262 -0.0122711
-0.035554301 0.118175 -0.0120916
-0.020327 0.118135 -0.012156
0.0143152 0.117825 -0.0125375
0.031592701 0.118244 -0.0122002
-0.035163298 0.11835 -0.012531
0.014527 0.118312 -0.0124187
-0.034875799 0.119118 -0.012247
-0.034472998 0.118875 -0.0127417
-0.020124801 0.118992 -0.012436
0.0149156 0.119084 -0.0120902
0.031675301 0.118883 -0.0125316
-0.072981797 0.119231 -0.0121945
0.031814601 0.119108 -0.0121875
-0.072088301 0.119975 -0.0121596
-0.034058899 0.120018 -0.0124856
0.015706699 0.11985 -0.0123652
0.064443998 0.119784 -0.0121668
-0.019621501 0.119993 -0.0124042
0.062860802 0.119879 -0.0122808
0.062920697 0.120778 -0.0125046
0.063901499 0.120031 -0.012421
-0.071218103 0.120943 -0.0123069
-0.033951499 0.120912 -0.0120663
0.016659001 0.121145 -0.0121215
0.0318968 0.120975 -0.0122199
0.064153001 0.120738 -0.0126767
-0.033422999 0.12115 -0.0125528
-0.019086 0.120855 -0.0123947
0.063736103 0.121091 -0.0127434
0.064967699 0.121634 -0.0123896
0.076918997 0.121208 -0.0121875
-0.070846803 0.121777 -0.0121343
-0.0332691 0.121885 -0.012274
0.062746897 0.121804 -0.0126013
0.076853901 0.121892 -0.0121018
-0.070523001 0.122025 -0.0126486
-0.0183443 0.12197 -0.0123469
0.0177969 0.122665 -0.012196
0.031448901 0.122689 -0.0121804
0.062507696 0.122375 -0.0125375
0.065191202 0.122394 -0.0126035
0.076844104 0.122775 -0.0120717
-0.070298903 0.122643 -0.0120862
-0.017865101 0.122759 -0.0122442
0.062281899 0.12267 -0.0123385
0.018375499 0.123076 -0.0125409
0.0769931 0.123075 -0.0125375
-0.069472 0.123513 -0.012148
-0.0175675 0.12356 -0.0124145
0.0310915 0.123578 -0.0121976
0.065650903 0.123595 -0.0123408
0.077131897 0.123599 -0.0123975
0.0191136 0.123778 -0.0122465
-0.068256997 0.124405 -0.0123175
-0.017327201 0.124132 -0.012528
0.0196345 0.124205 -0.0120708
0.030277001 0.124125 -0.0127646
0.030626999 0.123998 -0.0125375
0.062477 0.124125 -0.0127471
-0.031852201 0.124475 -0.0122276
-0.0169219 0.124685 -0.0122409
0.020346601 0.124614 -0.0121875
0.0302091 0.124583 -0.0121309
0.077511802 0.12449 -0.0121066
0.080932103 0.124508 -0.0121875
0.081726998 0.124261 -0.0121875
0.082873002 0.124152 -0.0120223
0.083814397 0.124394 -0.0121802
-0.067698598 0.124842 -0.0121848
-0.031652302 0.124828 -0.012281
0.029371001 0.124791 -0.0124856
0.078151204 0.124826 -0.0124519
0.0802458 0.124836 -0.0121699
0.084566198 0.124766 -0.0120838
-0.016555 0.125323 -0.0122184
0.021306699 0.12519801 -0.0122777
0.0286141 0.12550201 -0.0121689
0.078397602 0.125164 -0.0120796
0.079311997 0.12519901 -0.0121389
0.084932901 0.12521499 -0.012325
-0.066849299 0.125642 -0.0123666
-0.031371702 0.125494 -0.0120601
0.0620507 0.12543701 -0.0123421
0.066031598 0.125266 -0.0123409
0.0222241 0.125734 -0.0121319
0.0232493 0.125861 -0.0124491
0.023801999 0.125875 -0.0126234
0.066312201 0.12579399 -0.0120887
0.085252903 0.125664 -0.0121121
-0.030944901 0.126293 -0.0122024
0.026864501 0.12627999 -0.012201
0.0274853 0.12616999 -0.0120977
0.062127002 0.12622499 -0.0125749
0.066581704 0.12640201 -0.0121896
0.085358299 0.126149 -0.012275
-0.030669199 0.12666599 -0.0125375
0.085226998 0.12657499 -0.012779
-0.065741196 0.127174 -0.012272
-0.0304345 0.12726501 -0.0122614
0.0667772 0.12702601 -0.0123369
0.085483998 0.127275 -0.0121875
-0.065202802 0.127625 -0.0125375
-0.0155039 0.12717099 -0.0124476
-0.064731099 0.128049 -0.0123042
-0.030061699 0.12810101 -0.0121506
-0.014948 0.12822901 -0.0123751
0.061822299 0.128223 -0.0125375
0.067268103 0.12809099 -0.012134
0.0856902 0.128216 -0.012241
-0.064068399 0.128446 -0.0125375
0.061737701 0.128675 -0.0125375
0.085927002 0.128675 -0.0126064
0.086511597 0.128709 -0.0123822
-0.063769802 0.128713 -0.0121243
-0.0142767 0.129133 -0.0124754
0.087361999 0.128773 -0.0123491
0.088380702 0.128776 -0.0123002
0.089239702 0.128886 -0.0123653
-0.062989198 0.12923899 -0.0120617
-0.029558901 0.129095 -0.0122028
0.067640401 0.12905701 -0.0122064
0.090125002 0.12898199 -0.0121905
-0.0623946 0.12983 -0.0121335
-0.0291752 0.129829 -0.0121905
0.0612543 0.129915 -0.0122004
0.067838199 0.12972499 -0.0125375
0.090334103 0.129903 -0.0125302
-0.0136734 0.129802 -0.012354
0.089777 0.13007499 -0.0128206
-0.0287355 0.130638 -0.012242
-0.0135035 0.130099 -0.0124885
-0.0129248 0.130854 -0.0121828
0.068504401 0.13076 -0.0121359
-0.061791599 0.13071799 -0.0120769
0.061040401 0.130775 -0.0121475
0.090894498 0.131008 -0.0124501
-0.012758 0.131475 -0.0125629
0.091009699 0.131868 -0.0123884
-0.061042398 0.131613 -0.0121875
-0.028191401 0.131946 -0.0120758
-0.0123087 0.131845 -0.0122882
0.068730198 0.1318 -0.0123182
0.060755599 0.13169099 -0.0120096
-0.060061399 0.13255 -0.0121875
-0.027879 0.132618 -0.0121875
-0.012073 0.132475 -0.0125871
0.090491198 0.132808 -0.012584
-0.059621301 0.132875 -0.0123625
-0.0115855 0.132663 -0.0121894
0.068777502 0.132783 -0.0125217
-0.059045799 0.13329899 -0.0123625
-0.0274623 0.13341799 -0.0123414
0.068782903 0.13357501 -0.0124858
0.0601389 0.133789 -0.0119747
-0.027123 0.13392501 -0.0125907
0.090465002 0.13357501 -0.0124853
-0.027039301 0.134442 -0.0121909
-0.010506 0.134361 -0.012364
0.090988196 0.134378 -0.0122064
0.059989601 0.134508 -0.012145
-0.057709601 0.13525499 -0.0122853
0.0599856 0.134977 -0.0124488
0.068579704 0.135336 -0.0123921
0.091894001 0.135069 -0.0123161
-0.0266272 0.135325 -0.012225
-0.0099953199 0.135175 -0.0123625
0.0922741 0.136375 -0.0125753
-0.00925445 0.13610899 -0.012279
-0.056768201 0.13634001 -0.0121875
-0.0089271804 0.136663 -0.0124433
0.059365299 0.1363 -0.0120633
0.0592818 0.13707601 -0.0124493
0.068513997 0.13725001 -0.0123593
0.092211999 0.137308 -0.0125307
-0.055759002 0.13742501 -0.0125375
-0.0083072297 0.137282 -0.0121624
-0.055469599 0.13775299 -0.0124754
-0.0259826 0.138026 -0.012275
0.068656199 0.13789199 -0.0124115
0.091527 0.13795 -0.0127865
0.092084602 0.138217 -0.0123935
-0.055106901 0.138312 -0.0121577
-0.0076742801 0.138083 -0.0120412
0.069155201 0.138257 -0.0120334
-0.0548352 0.139072 -0.0120769
0.069358699 0.13893899 -0.0123227
0.091237999 0.13912199 -0.0123625
-0.00708562 0.13901301 -0.0121875
0.058283798 0.139071 -0.0121418
-0.054578301 0.139953 -0.012178
-0.00667733 0.139621 -0.0123005
0.0582125 0.139625 -0.0125563
0.070207097 0.13968199 -0.0123552
0.090110399 0.13997801 -0.0122434
-0.025397601 0.140031 -0.0123433
-0.077441998 0.14028101 -0.0122681
-0.076502398 0.14024299 -0.0124897
-0.025236201 0.14022499 -0.0125375
0.057826899 0.139974 -0.0120889
0.089487299 0.140275 -0.0125375
-0.078456298 0.140523 -0.0125624
-0.077523001 0.14039899 -0.0121875
-0.075596102 0.140798 -0.0121984
-0.054423001 0.140404 -0.0125375
-0.0539959 0.140912 -0.0122167
-0.00603077 0.14019001 -0.0120708
0.071158603 0.140872 -0.0122108
0.089268498 0.14073899 -0.0122513
-0.079273 0.140596 -0.0123646
-0.080072701 0.14082199 -0.0123739
-0.074972503 0.14112499 -0.0123868
-0.0057227202 0.140654 -0.0122908
-0.081086397 0.14095201 -0.0122532
-0.079972997 0.141275 -0.0127634
-0.0054229898 0.141275 -0.0128027
-0.00525505 0.141074 -0.0121388
-0.081197999 0.1418 -0.0126442
-0.053433899 0.141625 -0.0123625
0.0570926 0.141625 -0.0125375
0.071244799 0.14180601 -0.0122107
-0.073917799 0.141976 -0.0122187
-0.053291999 0.14182401 -0.0121
-0.024847999 0.141838 -0.0121875
-0.0047405302 0.14167599 -0.0122447
0.056821998 0.14196999 -0.0124558
0.089252703 0.14187799 -0.0120603
-0.081862301 0.142675 -0.0124935
-0.073322996 0.14211699 -0.0125375
-0.073001899 0.142409 -0.0122159
-0.053025 0.14253999 -0.0121546
-0.00397059 0.14238501 -0.0122418
0.0710949 0.142617 -0.0122458
0.089264199 0.14267001 -0.012318
-0.071952499 0.14271 -0.0122225
-0.0246874 0.142906 -0.0121868
0.056224 0.14278799 -0.0123673
-0.071038 0.142874 -0.0122737
-0.0705304 0.14299101 -0.0122454
-0.070206702 0.14313599 -0.0125402
-0.00297299 0.143363 -0.0125591
0.070908502 0.143613 -0.0120875
-0.068421401 0.143537 -0.0122491
-0.0537831 0.143691 -0.0122114
-0.0024056199 0.143613 -0.0121456
0.055509601 0.14350501 -0.012047
0.088610299 0.143819 -0.0125428
0.089234903 0.14353999 -0.0122991
-0.081197999 0.143851 -0.0125012
-0.065273002 0.143923 -0.0121875
-0.064622402 0.144072 -0.0122342
-0.055198502 0.14403901 -0.0127352
-0.054922 0.144091 -0.0121786
-0.054450098 0.143944 -0.0123803
-0.0019789599 0.144072 -0.0122789
0.087327003 0.14407501 -0.012783
-0.081023 0.144575 -0.0121875
-0.063873 0.14441399 -0.0123042
-0.056432601 0.14448901 -0.0122822
-0.055808201 0.144251 -0.0123403
-0.0243655 0.144425 -0.0125375
0.054885998 0.144547 -0.0124093
0.070864901 0.14438599 -0.0121177
0.087399699 0.144558 -0.0124175
-0.062936202 0.144738 -0.0121875
-0.060373001 0.144664 -0.0125375
-0.059253 0.144613 -0.0121875
-0.058332801 0.144724 -0.0123615
0.086626999 0.144775 -0.012557
-0.080097303 0.14543 -0.012275
-0.062239699 0.14484 -0.0121875
-0.061306302 0.144794 -0.0121875
-0.057517 0.144729 -0.0121786
0.054422799 0.14512099 -0.0125443
0.070923299 0.1453 -0.0121875
0.083826996 0.145392 -0.0122268
0.084737003 0.145428 -0.0121399
0.085545197 0.14538699 -0.0123624
0.086446397 0.145345 -0.012302
-0.079620801 0.14547201 -0.0125362
0.053987999 0.145367 -0.0122901
0.083204798 0.14556301 -0.0125375
-0.00059781497 0.145246 -0.0121875
0.071121901 0.146164 -0.0122043
0.0765258 0.146089 -0.0121709
-0.079370603 0.146299 -0.0122679
0.0530013 0.146061 -0.0120847
0.075602002 0.146025 -0.0121875
0.082950197 0.146276 -0.0122054
0.071576998 0.146589 -0.0125843
0.074995898 0.146487 -0.0123042
0.077165604 0.146486 -0.0124208
0.074548297 0.146918 -0.0122312
0.077628501 0.147222 -0.0122695
0.080677003 0.14687499 -0.0127707
-0.0784012 0.147127 -0.0121737
-0.0776584 0.14746401 -0.0122711
-0.0241154 0.147176 -0.0120787
0.00087700802 0.146937 -0.0125375
0.00137221 0.147315 -0.0124604
0.071773797 0.14745601 -0.0120884
0.073948398 0.147339 -0.0121875
0.082058601 0.147211 -0.0123373
0.051796298 0.147139 -0.0119994
0.073046997 0.14748 -0.0124581
0.079347 0.147554 -0.0125141
-0.076509804 0.148004 -0.0122176
0.051013298 0.148021 -0.0121433
-0.0756227 0.148304 -0.0121994
0.0025357499 0.148029 -0.0121936
-0.074743703 0.148635 -0.0121611
0.0029770101 0.148297 -0.0121875
0.050163601 0.14880501 -0.0122516
-0.073892899 0.148895 -0.0123051
0.0041635199 0.148981 -0.012131
-0.072976202 0.14894401 -0.012225
-0.071090303 0.149358 -0.0126914
-0.070851602 0.149244 -0.0122394
-0.023522601 0.14914601 -0.0122408
-0.070226699 0.149304 -0.0121292
-0.069100603 0.149525 -0.0122909
-0.068305001 0.14972299 -0.0122481
-0.0234269 0.149831 -0.0121208
0.0050344202 0.14967901 -0.0122407
-0.067509301 0.15006199 -0.0122157
0.048477001 0.149919 -0.0121875
-0.066539198 0.150543 -0.012138
-0.0234692 0.150692 -0.0123534
0.0059813098 0.15042099 -0.0123753
0.047530401 0.15054999 -0.0125375
-0.065658301 0.150884 -0.0122978
-0.064907797 0.15108 -0.0125647
-0.064654797 0.15149 -0.0123264
0.0068746 0.15084399 -0.0120749
0.046568099 0.15086199 -0.0121875
-0.064100198 0.151742 -0.0125305
-0.023607301 0.151867 -0.0125595
0.00752701 0.151381 -0.0123625
0.045502 0.15150499 -0.0123625
0.0082270103 0.152125 -0.0128299
0.0448603 0.151747 -0.0121875
-0.0236126 0.15265 -0.0125587
0.0089269998 0.15233 -0.0125375
0.0094362795 0.15246101 -0.0124206
0.043752 0.15232401 -0.0123784
-0.0629922 0.153492 -0.0123177
-0.0236165 0.15352499 -0.0125475
0.010327 0.152611 -0.0121875
0.0113161 0.153175 -0.0125375
0.041094098 0.153199 -0.0122201
0.0405568 0.15352499 -0.0125375
-0.062376801 0.15388 -0.0124229
0.012252 0.153639 -0.0123625
0.039726999 0.15387499 -0.0126187
-0.062112 0.154177 -0.0121477
-0.023616999 0.15440001 -0.0125448
0.038589101 0.15422501 -0.0124674
0.039027002 0.15409499 -0.0125375
-0.061141301 0.15460201 -0.0123293
0.013477 0.15435199 -0.0125375
-0.060598001 0.154842 -0.0124316
-0.023624901 0.155251 -0.0125356
0.015714301 0.1547 -0.012093
0.016186099 0.154925 -0.0125605
0.0373937 0.154634 -0.0123042
0.036579799 0.154937 -0.0123796
0.016927101 0.154927 -0.0123042
0.017764499 0.155031 -0.0121875
0.018703001 0.15525199 -0.0124208
0.033104599 0.15518101 -0.01228
0.034069698 0.155158 -0.0123094
0.034651998 0.15508699 -0.0121875
0.0191937 0.15529101 -0.0123614
0.0213564 0.155624 -0.0124523
0.031677 0.155625 -0.0127987
0.0321652 0.15535299 -0.0124208
-0.0236273 0.15622599 -0.0125338
0.025377 0.155975 -0.0127774
0.0254937 0.155856 -0.0124208
0.0262891 0.155975 -0.0125375
0.0284521 0.155948 -0.012418
0.030277001 0.15577701 -0.0125375
-0.0575561 0.156417 -0.0122653
-0.023623001 0.15702499 -0.0125516
-0.056720398 0.157207 -0.012267
-0.0235941 0.158075 -0.0125589
-0.056239098 0.157876 -0.0121543
-0.056054 0.158425 -0.0123625
-0.081913203 0.159012 -0.0122321
-0.081023 0.158948 -0.0122259
-0.080182999 0.158858 -0.012326
-0.079197697 0.158985 -0.0122785
-0.078421697 0.158981 -0.01243
-0.083527401 0.159238 -0.01245
-0.082773 0.159141 -0.0123037
-0.077555403 0.15913001 -0.0125377
-0.076823004 0.159125 -0.0126405
-0.0559103 0.15910099 -0.0122306
-0.084691703 0.15972 -0.0121875
-0.075617999 0.159989 -0.0120656
-0.074722998 0.159475 -0.0128136
-0.0559511 0.159742 -0.0120866
-0.085583501 0.160087 -0.0122144
-0.074703902 0.16000099 -0.012264
-0.073673002 0.159825 -0.0128218
-0.056223098 0.160045 -0.0125182
-0.023036901 0.160053 -0.0125596
-0.073906302 0.160115 -0.0124277
-0.072984397 0.16016699 -0.0125644
-0.086445898 0.16055299 -0.0122678
-0.071847901 0.16072001 -0.0122899
-0.0230357 0.16052499 -0.0126061
-0.070873 0.160804 -0.0125375
-0.070220903 0.160871 -0.0125642
-0.056613199 0.16076 -0.0122279
-0.087535203 0.161449 -0.01245
-0.068773001 0.161102 -0.0125375
-0.068469703 0.161254 -0.012396
-0.067433096 0.161465 -0.0122851
-0.067373 0.16122501 -0.0127423
-0.0573957 0.16108599 -0.0125576
-0.066390797 0.16157 -0.0123344
-0.059248801 0.161467 -0.0123748
-0.022923 0.16175 -0.012662
-0.088321202 0.16181201 -0.0120984
-0.065103799 0.161631 -0.0124046
-0.061133701 0.16179501 -0.0120766
-0.023273 0.161925 -0.012759
-0.088448703 0.16221499 -0.0125375
-0.022923 0.162625 -0.0126822
-0.022222999 0.1628 -0.0125805
-0.089223899 0.162664 -0.012316
-0.090181202 0.163473 -0.0122942
-0.022923 0.1635 -0.0126708
-0.090454198 0.16402499 -0.0125169
-0.0910476 0.164304 -0.0121432
-0.023097999 0.16455001 -0.0126249
-0.022573 0.16472501 -0.0125556
-0.091262303 0.16519199 -0.0125514
-0.024323 0.165075 -0.0126883
-0.023060801 0.16511799 -0.0125454
-0.0237257 0.16546699 -0.0125386
-0.092007697 0.166182 -0.012064
-0.026072999 0.165775 -0.012783
-0.0258769 0.166272 -0.0125587
-0.024847999 0.165851 -0.0125434
-0.082423002 0.166526 -0.0126033
-0.081931598 0.166467 -0.012527
-0.081384704 0.16647699 -0.0125397
-0.026423 0.166475 -0.012641
-0.092024699 0.16714001 -0.0123663
-0.083046697 0.16716699 -0.0121875
-0.026734101 0.16715799 -0.012511
-0.083536804 0.167348 -0.0123042
-0.080190003 0.167201 -0.0122378
-0.075586103 0.167289 -0.0123396
-0.074733503 0.167236 -0.012233
-0.084297597 0.16752499 -0.0125375
-0.079316698 0.167467 -0.0122771
-0.0772615 0.16751 -0.0122747
-0.074018598 0.167519 -0.0121923
-0.0271759 0.16752499 -0.0125375
-0.091992103 0.168043 -0.0122479
-0.087323003 0.168055 -0.0124738
-0.0853424 0.168137 -0.0123057
-0.084700197 0.16807599 -0.0121429
-0.073750697 0.16805001 -0.0120896
-0.0275073 0.16802 -0.0125153
-0.088309899 0.168237 -0.0125155
-0.091127202 0.169019 -0.0123625
-0.089423001 0.168575 -0.0127679
-0.089206301 0.168688 -0.0125055
-0.0276643 0.168772 -0.0123046
-0.089919902 0.169008 -0.0124655
-0.073630303 0.16897801 -0.0122449
-0.028214701 0.16902301 -0.0125453
-0.028507 0.169797 -0.0123252
-0.073401399 0.1698 -0.0123625
-0.072974302 0.170589 -0.0122624
-0.0292782 0.170857 -0.0124009
-0.030098001 0.171757 -0.0125375
-0.072353497 0.17251299 -0.0121875
-0.0304363 0.172445 -0.0120528
-0.03122 0.17287301 -0.0125375
-0.072606497 0.1734 -0.0121537
-0.0314251 0.173245 -0.0121077
-0.072974697 0.174319 -0.0124707
-0.032884199 0.174363 -0.012341
-0.0725483 0.175925 -0.0125375
-0.034948699 0.175984 -0.0121875
-0.034472998 0.175622 -0.0121875
-0.072289601 0.176226 -0.0121425
-0.071806498 0.17680199 -0.0121486
-0.0359473 0.17666 -0.0123307
-0.071120001 0.177295 -0.0121292
-0.036660299 0.177086 -0.0121
-0.070202403 0.17765599 -0.0122411
-0.0377624 0.17768399 -0.0123905
-0.037273001 0.177452 -0.0123625
-0.069262303 0.177975 -0.0121456
-0.068711802 0.17817201 -0.0123275
-0.0384528 0.177986 -0.0122779
-0.068181902 0.178608 -0.0121
-0.067515299 0.178719 -0.0124689
-0.039606299 0.178663 -0.0124208
-0.039409101 0.178343 -0.0120675
-0.066582799 0.179056 -0.0120696
-0.040231999 0.178755 -0.0120729
-0.065972999 0.179268 -0.0125375
-0.065623797 0.179455 -0.0123834
-0.041167799 0.179488 -0.0125166
-0.064048 0.179745 -0.0123625
-0.0420339 0.17968599 -0.0123145
-0.063056298 0.18012699 -0.012117
-0.043013901 0.179892 -0.0120856
-0.041997999 0.180125 -0.0127369
-0.061134901 0.18046699 -0.0121836
-0.043891001 0.180448 -0.0124419
-0.043106299 0.18035901 -0.0125716
-0.059518401 0.18083 -0.0123047
-0.057223 0.18078201 -0.0125375
-0.056522999 0.180778 -0.0121875
-0.055366799 0.180815 -0.0121875
-0.046583001 0.180756 -0.0121175
-0.045716699 0.180649 -0.0122312
-0.0448258 0.180526 -0.0122554
-0.051623002 0.180902 -0.0125375
0.024676999 0.052781399 -0.0120125
-0.056522999 0.053253699 -0.0121875
-0.055589698 0.05333 -0.0120708
-0.029398 0.053888299 -0.0122169
-0.028873 0.053583 -0.0121875
0.028702 0.0534692 -0.0120125
0.040281899 0.053766001 -0.0119054
0.040952001 0.053523399 -0.0120125
0.064926997 0.053779099 -0.0120759
0.065343998 0.053771898 -0.0119039
-0.063873 0.054109599 -0.0121002
-0.062939703 0.053952299 -0.0120581
-0.021523001 0.0538131 -0.0121875
0.062127002 0.0538572 -0.0121875
-0.065800399 0.054468598 -0.0119562
-0.064747997 0.0542228 -0.0120125
-0.030448001 0.054503798 -0.0120125
0.034907799 0.054421999 -0.0120125
0.035526998 0.054330599 -0.0121875
0.055476401 0.054467902 -0.0119228
0.056701999 0.0541723 -0.0121875
-0.018723 0.055146199 -0.0120929
0.051938102 0.055132799 -0.0121184
-0.045547701 0.0554998 -0.0119242
-0.036922999 0.055863 -0.0121875
0.071635999 0.055682 -0.0120309
-0.038634699 0.056323901 -0.011939
-0.037548501 0.055988502 -0.0121492
0.071901701 0.056484502 -0.0118811
0.071623899 0.0574122 -0.0120125
-0.043765899 0.057081401 -0.0119905
-0.0152865 0.057745598 -0.0120125
-0.0144426 0.058674999 -0.0121875
0.016860301 0.0591565 -0.0119542
0.070867099 0.0591681 -0.0121193
-0.075381003 0.059720799 -0.0119349
0.016311901 0.060075 -0.0121875
0.070293702 0.0602763 -0.0121732
-0.076239698 0.060432501 -0.0121037
0.069842502 0.061127901 -0.0121659
-0.0120383 0.061754301 -0.0120125
-0.0111004 0.062551998 -0.0120125
0.068732597 0.063005202 -0.0121126
0.0147557 0.062898397 -0.0120125
0.0145274 0.063792698 -0.0119881
-0.0096229902 0.064264901 -0.0122206
-0.079622999 0.064625002 -0.0122901
-0.0092912596 0.064625897 -0.011922
0.0670982 0.064548001 -0.0119087
-0.0087012099 0.065674998 -0.0121875
-0.0806868 0.0660294 -0.012087
0.013477 0.067281902 -0.0121875
-0.082401097 0.069174998 -0.0121875
0.0127948 0.070060499 -0.0120371
0.0125342 0.071177296 -0.0120543
0.0124475 0.0728499 -0.0120609
0.0123553 0.0747208 -0.0123139
-0.084523 0.075475 -0.0122274
-0.00196654 0.075591698 -0.0119542
0.047918301 0.076875001 -0.0121875
-0.00087298499 0.077741601 -0.0120125
-0.085646503 0.080258302 -0.0121399
-0.085664101 0.081074998 -0.0122223
0.046005201 0.081950001 -0.0121491
0.0137418 0.082147598 -0.0120206
-0.085898302 0.084628798 -0.0119126
0.0145793 0.0847838 -0.0119463
-0.0856134 0.088249996 -0.0122071
0.049387001 0.088318102 -0.0120533
-0.085566401 0.089060098 -0.0119106
0.0166275 0.090352699 -0.0120093
0.0507254 0.090000004 -0.0120125
-0.085257404 0.090985 -0.0120125
-0.0852082 0.091815203 -0.011925
0.051984299 0.092073098 -0.0119914
0.019075001 0.095009997 -0.0120958
-0.039374702 0.096442401 -0.0122098
-0.0843997 0.096448801 -0.011925
0.056222599 0.096789598 -0.0120569
-0.042114001 0.097320601 -0.0122817
-0.041275799 0.097321898 -0.0119023
-0.042230301 0.098216802 -0.0120155
-0.036614001 0.097899698 -0.0120446
0.0071792798 0.097933002 -0.0120926
0.0570135 0.097874999 -0.0121875
-0.042312 0.099079303 -0.0120067
-0.083503403 0.099887498 -0.0121179
-0.0320515 0.100113 -0.0120902
-0.0312846 0.100327 -0.0120049
0.059058201 0.100338 -0.0120034
-0.083130598 0.100938 -0.012093
-0.033066001 0.100803 -0.0124524
-0.033117399 0.100099 -0.0120112
0.0597932 0.101375 -0.0121875
0.060019799 0.101895 -0.0119775
-0.030583501 0.101987 -0.0120212
-0.081964999 0.103538 -0.0120019
-0.0409167 0.103546 -0.012154
-0.040632799 0.103941 -0.012131
0.0089269998 0.103825 -0.0123582
-0.027714999 0.104596 -0.0122584
-0.0294667 0.104606 -0.0122129
0.0092438702 0.104875 -0.0122948
-0.026923399 0.105505 -0.0121657
0.0254761 0.10547 -0.0120155
-0.026703 0.106485 -0.0122204
0.025908099 0.106484 -0.0122407
0.070527002 0.106456 -0.0121791
0.074866802 0.106479 -0.0121068
-0.080722503 0.107192 -0.011927
-0.026387401 0.107061 -0.0121878
0.0098794103 0.106975 -0.0121875
0.0264591 0.107194 -0.0119896
0.068777002 0.107233 -0.0119865
0.075670101 0.107325 -0.0120875
-0.025722999 0.1082 -0.0121676
-0.0800611 0.108276 -0.0119542
0.067377701 0.108189 -0.0119671
0.0762145 0.10825 -0.0120371
0.0274428 0.10925 -0.0123112
-0.024266699 0.109019 -0.0119435
0.064664498 0.109191 -0.0120746
0.0657437 0.109373 -0.0122331
-0.038562302 0.11015 -0.0119898
-0.0789444 0.11097 -0.0119828
-0.037738301 0.110882 -0.0122409
-0.023333 0.111 -0.0119444
0.077293701 0.111156 -0.0120603
-0.023623001 0.111875 -0.0124385
-0.023131 0.111931 -0.0120187
0.028725799 0.111918 -0.0123789
0.077378497 0.111803 -0.0120691
0.0117169 0.11278 -0.0119035
-0.036223002 0.113625 -0.0124522
0.029523101 0.113497 -0.0123932
-0.0224874 0.113691 -0.0121483
