# .PCD v0.7 - Point Cloud Data file format
VERSION 0.7
FIELDS x y z
SIZE 4 4 4
TYPE F F F
COUNT 1 1 1
WIDTH 1313
HEIGHT 1
VIEWPOINT 0 0 0 1 0 0 0
POINTS 1313
DATA ascii
0.0237143 0.184342 -0.0064325701
0.033627 0.184595 -0.0070737
-0.020520501 0.185642 -0.0067189699
0.0287722 0.18593 -0.00643291
0.028931901 0.187325 -0.0067725
-0.019822899 0.18704601 -0.0062697902
-0.0198102 0.188742 -0.0064263502
0.023819501 0.18845899 -0.0068022301
0.0290027 0.18853199 -0.0063114301
-0.0203935 0.188325 -0.00721107
0.0293558 0.19004899 -0.0065024602
0.0236551 0.18980899 -0.00687285
-0.0198367 0.190249 -0.0064957701
0.0337594 0.19006599 -0.0065041999
-0.0200128 0.191374 -0.0063119298
0.029823 0.191342 -0.0065031098
0.023419 0.19154599 -0.00700218
-0.019533001 0.192743 -0.0064100502
-0.0204337 0.193038 -0.0062882099
0.033404801 0.192734 -0.0067355302
0.0301937 0.192651 -0.0067235199
-0.0167435 0.192688 -0.0067425398
-0.020808 0.194426 -0.0063702199
0.030753201 0.194326 -0.00628446
0.033498298 0.19455899 -0.0065376698
-0.0165185 0.19395 -0.0071299602
0.0224254 0.194152 -0.0068339799
-0.0179266 0.195647 -0.0063790702
0.030268 0.194925 -0.00674333
-0.0150434 0.19586401 -0.0067048301
0.029756401 0.19594701 -0.0063996301
0.0342016 0.195869 -0.0064700199
-0.0210007 0.196027 -0.0062771798
0.0223323 0.195843 -0.0069026998
-0.0171749 0.196412 -0.00677252
0.023456501 0.196325 -0.00722472
0.0253065 0.196325 -0.0072028302
-0.020987401 0.19723099 -0.00648996
-0.016929699 0.19719 -0.0064674299
-0.0149495 0.197201 -0.0069609098
0.0224452 0.197244 -0.0069625401
0.0233148 0.197117 -0.0071352599
0.025044 0.197294 -0.0071377498
0.029154601 0.19727901 -0.0064543001
0.034505699 0.197302 -0.00651755
-0.0208141 0.19873901 -0.0069585801
-0.0164502 0.19853599 -0.00650919
-0.0152415 0.1988 -0.0070176902
0.0226372 0.198669 -0.00696065
0.024814799 0.19863801 -0.0070758602
0.028794199 0.19886699 -0.0070225
0.034409501 0.19866499 -0.0066162501
0.024358001 0.19881099 -0.0070179398
-0.0138126 0.198733 -0.0069447798
-0.0151881 0.200185 -0.0064345701
-0.0137322 0.200169 -0.0069450098
0.0238468 0.20019899 -0.0069919601
-0.0203935 0.19957501 -0.0070855902
-0.0191072 0.199775 -0.00704533
0.0293842 0.200155 -0.0063172099
0.034219101 0.20008899 -0.0065423301
-0.0177825 0.200175 -0.0068971799
-0.017726799 0.20090801 -0.0071526999
-0.016789 0.201737 -0.0068254299
0.0298518 0.201268 -0.0064897002
0.033935599 0.201704 -0.0063081798
0.0306876 0.202023 -0.00628846
-0.0169663 0.202932 -0.00627757
0.0334833 0.202815 -0.0066467701
-0.017431 0.203187 -0.0066952999
0.0324708 0.20293701 -0.0064984998
-0.017656 0.204457 -0.0065619401
0.021098901 0.20457301 -0.0070345299
0.0197041 0.204587 -0.0069562099
-0.017472399 0.205498 -0.0068720002
0.019350801 0.205965 -0.0069621899
-0.0166218 0.20587499 -0.00634056
-0.0154259 0.20641001 -0.00628193
-0.0145551 0.206783 -0.00641105
-0.0137484 0.207156 -0.0064105098
0.0191666 0.207479 -0.0065945899
-0.0124786 0.20778 -0.0064115198
-0.0117836 0.208344 -0.0069225002
0.019370999 0.208856 -0.0064717098
-0.0108348 0.20871399 -0.00657721
-0.0096285501 0.20927 -0.0063336599
-0.0089706797 0.20985299 -0.00653225
-0.0082200496 0.210637 -0.0066396901
0.0194251 0.21171699 -0.0064808102
-0.00761321 0.211649 -0.0064008199
-0.0069539798 0.21325099 -0.0063108099
0.0191557 0.213302 -0.0063818698
-0.0065006898 0.21469299 -0.006335
0.0185748 0.214891 -0.0064746202
-0.00628629 0.216074 -0.00641646
0.0180103 0.21605501 -0.00653604
-0.0053886198 0.216704 -0.0063856202
-0.0046858499 0.21720301 -0.00648261
0.017523799 0.216875 -0.00632481
-0.0041915001 0.218042 -0.0064452402
0.0169724 0.217684 -0.00645959
0.016354799 0.218569 -0.0063033202
-0.003513 0.219061 -0.0063903602
0.0156242 0.219321 -0.0065695099
-0.00224634 0.22041599 -0.00643272
0.0147856 0.22005101 -0.0064143199
0.0137826 0.220744 -0.0065560099
-0.0013935 0.221075 -0.0071310699
0.0123216 0.22164001 -0.0064795199
-0.00059285201 0.22187699 -0.0063424902
0.0109899 0.222343 -0.0063729198
0.00029338701 0.222451 -0.0063306498
0.00954499 0.222882 -0.0064928802
0.00107917 0.222817 -0.00653271
0.0066071399 0.223589 -0.0065862699
0.0047690002 0.22367901 -0.0066742799
-0.0342969 0.056313898 -0.0063368198
-0.036393501 0.056354702 -0.0063975002
0.023841601 0.056735002 -0.0062753102
0.0022315001 0.061058801 -0.0066475002
-0.032789301 0.0611814 -0.0063975002
-0.0311435 0.0612082 -0.0065225
-0.019143499 0.061177298 -0.0067725
0.0076064998 0.061102498 -0.0067725
0.0151065 0.061169699 -0.0067725
-0.044964202 0.061870702 -0.0063141701
0.0350894 0.0647 -0.0063975002
0.035196599 0.065700002 -0.0066475002
-0.043866601 0.071464702 -0.0063141701
-0.0064464901 0.079304203 -0.0061722398
-0.00341746 0.079323001 -0.0062557799
-0.0385185 0.079648301 -0.0064391699
-0.032569401 0.079742402 -0.00655013
0.00155036 0.079539999 -0.0063595599
-0.0142387 0.0819088 -0.0063262801
-0.0280913 0.087678201 -0.0065402798
-0.0267525 0.087621599 -0.00622113
-0.0294406 0.089168899 -0.0063368399
-0.0105573 0.0930373 -0.0060607898
-0.025581 0.095110998 -0.0066100801
-0.039529599 0.095598198 -0.0061576199
-0.027031399 0.096092299 -0.0062163998
0.0065502399 0.097456798 -0.0061261002
0.0095785502 0.100337 -0.0061645401
0.0108978 0.101979 -0.0064515802
-0.031718701 0.102242 -0.0064052199
0.012216 0.103118 -0.0063606701
0.0136867 0.106325 -0.0064634499
-0.032873798 0.111972 -0.0065102102
-0.0314277 0.112184 -0.0061745299
0.0166963 0.11495 -0.0066560199
-0.0267893 0.129379 -0.0064093298
0.021015801 0.130612 -0.0064343698
-0.0254247 0.135243 -0.00634414
0.0288652 0.136242 -0.00660583
-0.031262301 0.13908701 -0.00640349
-0.029143499 0.141636 -0.0066891699
-0.022752 0.16112401 -0.0065225
0.0259255 0.166015 -0.00687567
0.0311135 0.168496 -0.0064372998
0.032904901 0.173067 -0.0062507298
0.032689501 0.17560899 -0.0063468898
0.028949101 0.17814299 -0.00624674
0.0288285 0.178725 -0.00618017
0.0287003 0.18137699 -0.0063856598
0.023659 0.18580399 -0.0064750998
0.028854501 0.18684 -0.0061943699
0.022460399 0.191449 -0.0065323999
0.022429399 0.192763 -0.0066938298
-0.0150703 0.194308 -0.0064674299
-0.0192708 0.194435 -0.00607647
-0.0136736 0.19715001 -0.00644965
0.029067799 0.198569 -0.0064567602
-0.019523701 0.198578 -0.0066925101
-0.0121639 0.198741 -0.0063892002
-0.0181037 0.198713 -0.0064108698
-0.0123937 0.20009699 -0.0064090998
0.022373199 0.20010801 -0.00690545
0.0209438 0.200277 -0.0066234702
0.021184999 0.20182499 -0.00682818
0.0224034 0.20177799 -0.0069193901
0.0210732 0.20296501 -0.0069145202
0.0196622 0.203082 -0.0066463999
0.0185652 0.205818 -0.0061759101
0.018863 0.214223 -0.0064183301
0.0021168401 0.223221 -0.00648415
0.0034926101 0.22361299 -0.0062931301
0.00085650402 0.0610478 -0.0065225
0.0032704901 0.0610772 -0.0061942898
-0.0232685 0.061211299 -0.0062724999
0.0124815 0.061139598 -0.0062724999
0.0304606 0.074293703 -0.0063975002
0.0080521898 0.079187997 -0.0064062001
-0.0049022399 0.079238303 -0.00621953
0.027751699 0.0797529 -0.0061478498
-0.039768498 0.079687603 -0.0063975002
-0.030789001 0.079796202 -0.0066720201
-0.0112409 0.079602703 -0.0063945898
-0.0144842 0.0806344 -0.00606278
-0.0269676 0.0895513 -0.0061734798
-0.032041602 0.0914573 -0.00622313
-0.0226753 0.094468199 -0.0061206198
0.0039273002 0.095642202 -0.0062802201
0.013795 0.107717 -0.00633831
-0.033933502 0.112153 -0.0063442499
0.0153368 0.112246 -0.0062795202
0.0151299 0.113376 -0.0063250298
0.0154311 0.114859 -0.0063279499
0.0155392 0.116511 -0.0062228101
0.0165076 0.116688 -0.0066281399
0.0165645 0.117958 -0.0065168901
0.0165736 0.119133 -0.0063626701
0.020245099 0.127158 -0.0065685199
-0.028100999 0.12941 -0.0063171601
0.019899299 0.13069101 -0.0060873702
0.0274987 0.132825 -0.0065225
-0.0294932 0.141865 -0.0062085101
-0.026143501 0.151811 -0.0065225
0.0293235 0.163243 -0.0062220399
0.033156101 0.169992 -0.00628983
-0.0174018 0.17057499 -0.0062724999
0.0325475 0.17675599 -0.0062796799
0.033188 0.185692 -0.0063428101
-0.0180305 0.19156 -0.0062687499
-0.016648101 0.19152801 -0.0061842301
0.020801799 0.19298001 -0.0062090899
0.033111501 0.192884 -0.00619887
-0.0151806 0.192912 -0.00610682
0.033092801 0.19408301 -0.0061379201
0.0209275 0.19412699 -0.0063971598
0.020817 0.19593599 -0.0065126601
0.020861899 0.197283 -0.00654381
-0.0122134 0.19730601 -0.0062825698
0.0208402 0.19873101 -0.0065238699
-0.016637901 0.200156 -0.0063940701
-0.013547 0.201447 -0.0060855402
0.0198518 0.201675 -0.0064461599
0.018332999 0.204441 -0.0063188798
0.0078998599 0.22343799 -0.0060897698
-0.00039349901 0.061037499 -0.0062724999
-0.0176435 0.061171401 -0.0062724999
-0.0156435 0.061151199 -0.0062724999
0.0061065 0.0611028 -0.0060224999
0.0106065 0.061114501 -0.0062724999
0.0143565 0.0611711 -0.0062724999
0.0183565 0.061122801 -0.0062724999
0.00560473 0.0793062 -0.0063136201
0.0028726701 0.079472497 -0.0062497398
0.0042731198 0.079391502 -0.0063625099
0.0068566198 0.079304002 -0.00628366
-0.033643201 0.079700299 -0.0060227602
-0.0126292 0.079718299 -0.0062494902
0.0117021 0.083281502 -0.00592406
0.0232359 0.084637903 -0.0059437398
-0.026361199 0.084443599 -0.0060143201
0.0219805 0.085321903 -0.0059309001
0.0189052 0.086793303 -0.0059600002
-0.035473101 0.088350996 -0.0059971898
-0.040491302 0.090387501 -0.0059600002
-0.0131139 0.091196403 -0.0060717701
-0.029011801 0.095712401 -0.0060026301
-0.025270499 0.095733598 -0.0060892301
-0.0279624 0.097206101 -0.0059105102
0.0109443 0.103083 -0.0060811201
-0.031707 0.104149 -0.0060346699
0.0124279 0.104736 -0.0062629199
0.0123249 0.106246 -0.0059624598
0.0137674 0.108887 -0.0061720498
-0.0375611 0.109194 -0.0060120099
-0.037463799 0.11046 -0.0060385298
0.0155004 0.110586 -0.0059276898
-0.032629199 0.110873 -0.0059905602
0.0144468 0.111844 -0.0059800302
-0.035210598 0.112225 -0.0060651
-0.029179201 0.114148 -0.0061043999
0.015731599 0.117888 -0.0060651298
0.016831201 0.120537 -0.0062672398
0.017084001 0.12208 -0.0060013998
0.018025801 0.122309 -0.0063200798
0.0180925 0.123595 -0.00610326
0.019809199 0.127846 -0.0061660302
-0.0269903 0.127884 -0.00604071
-0.027966499 0.128049 -0.0059194001
0.0198566 0.12941401 -0.0061441702
-0.0259059 0.131231 -0.0061162501
-0.030884299 0.1311 -0.0061226902
-0.032475598 0.138715 -0.0060556801
0.030433601 0.139672 -0.00597054
-0.0277816 0.143169 -0.0059725
0.0318597 0.14563601 -0.0060248799
0.0284508 0.16325501 -0.0059600002
-0.021602901 0.164242 -0.0060224999
0.033099599 0.168311 -0.0060988902
0.0229956 0.175221 -0.00607205
-0.018471699 0.180106 -0.0061175199
0.031789899 0.180325 -0.0060141901
-0.018565901 0.18127801 -0.00608736
0.031776302 0.18098199 -0.0059867799
-0.0195789 0.182704 -0.0061034202
-0.0201813 0.18448199 -0.0060807001
-0.0198789 0.185917 -0.00609694
0.022629499 0.18719301 -0.00612354
0.022416599 0.18858901 -0.0062061702
0.0223905 0.190007 -0.0063521899
0.0212529 0.190272 -0.0060588401
0.021197099 0.19163001 -0.00621696
0.033191498 0.191754 -0.0059867799
0.030693401 0.193055 -0.0060792002
0.020151399 0.194731 -0.0061688698
-0.0144421 0.195066 -0.0060775802
0.0304904 0.19515701 -0.00607546
0.0199122 0.19585399 -0.0061533302
-0.0137547 0.19617499 -0.0059866998
0.0195473 0.197295 -0.0061747301
-0.0197354 0.197469 -0.0061926902
0.0194894 0.19855601 -0.0063069202
0.0193181 0.200222 -0.0063461401
0.018234501 0.20019101 -0.0060342401
-0.0153649 0.201721 -0.00596738
-0.0126397 0.20132799 -0.0060399501
0.018079299 0.201794 -0.0061423802
0.018167499 0.202969 -0.00619725
0.0194392 0.20982499 -0.0061475001
-0.0071958499 0.212459 -0.0060567199
-0.00150165 0.221195 -0.0059408201
0.0130847 0.22132701 -0.0060369498
-0.0098935002 0.061075401 -0.00603926
-0.0016435001 0.061025899 -0.0060224999
1.6104101e-05 0.079288803 -0.0060858899
-0.0140287 0.079774603 -0.0052670101
-0.023823099 0.089225203 -0.0059083202
-0.0249724 0.089078099 -0.00585728
-0.0235525 0.088986099 -0.0050163898
-0.033448301 0.089859404 -0.0058833798
-0.0068523302 0.092722997 -0.0060084099
-0.023783401 0.095793098 -0.0059410101
-0.0272395 0.097347498 -0.00588112
0.0055282 0.097049803 -0.0059507401
0.0099562304 0.101571 -0.0058693602
0.0113669 0.104087 -0.00593476
0.0126342 0.107236 -0.0058295098
0.0142031 0.110325 -0.00595664
-0.031693 0.111135 -0.00592071
-0.0336367 0.111164 -0.0059390399
0.015892399 0.118575 -0.0060224999
-0.027664401 0.119057 -0.0058975001
0.018241899 0.124882 -0.0059113302
0.020016899 0.132093 -0.0058855601
0.020899599 0.13173699 -0.0059539699
0.0193616 0.132208 -0.0050631999
0.0199589 0.133433 -0.0052108201
0.030293301 0.174705 -0.0060315998
0.022507001 0.185616 -0.0059516202
0.0214044 0.18886 -0.0059238402
-0.017944301 0.190551 -0.0059457701
-0.0170063 0.190575 -0.00587638
-0.015621 0.1918 -0.00587124
0.0304232 0.19188599 -0.0058664898
-0.0122269 0.19603901 -0.0058726999
-0.017724199 0.197428 -0.0058261501
-0.0112259 0.197244 -0.00584953
-0.0112117 0.208079 -0.0058347499
0.0253231 0.052498601 -0.0051819501
0.026786 0.0522657 -0.0052330699
0.0238206 0.054229699 -0.0051734201
0.0237731 0.0556642 -0.0050542401
-0.035594799 0.055983901 -0.0051608002
0.023798 0.057163201 -0.0050382498
-0.039858099 0.0569827 -0.0051337401
0.0235154 0.058394901 -0.00501798
-0.033821799 0.060125601 -0.0051475
0.0232774 0.059716001 -0.00508874
0.0228507 0.060495298 -0.0050148801
0.0195232 0.0610709 -0.00533373
-0.0251435 0.0613124 -0.0053376602
-0.021081001 0.061169598 -0.0052708299
-0.0137685 0.0611456 -0.0055224998
0.0051064999 0.061113302 -0.0052725002
0.0095231701 0.061131101 -0.0049391598
0.0154815 0.061198302 -0.0053975
-0.028143501 0.0613726 -0.0052725002
-0.0050029098 0.061578501 -0.00515013
0.035165001 0.065715402 -0.0051475
0.033826798 0.070082098 -0.0052398099
0.032591 0.071487002 -0.0051724999
-0.041445602 0.075693198 -0.0051724999
0.0110285 0.079309501 -0.0051299301
-0.0094640497 0.079316899 -0.0051186602
0.0094685899 0.079214901 -0.00515169
0.0113861 0.080333799 -0.0052580498
-0.00787473 0.079320699 -0.0052630398
-0.0063663698 0.079337902 -0.0048975698
0.028223399 0.080298401 -0.0052452101
0.0295914 0.0794366 -0.0053588198
0.030791899 0.079539299 -0.0054556401
-0.036152098 0.079755798 -0.0050999299
-0.031023201 0.079705797 -0.0051628598
-0.0294412 0.079693504 -0.00507025
-0.0280976 0.080111399 -0.0051563401
-0.014995 0.080315799 -0.0050275698
-0.027339401 0.080897003 -0.0056102602
0.0112133 0.081666499 -0.0055460501
0.026876399 0.081843197 -0.0052153999
-0.0271826 0.083179399 -0.0053501199
-0.0143901 0.083283998 -0.0057749501
0.0128477 0.084532 -0.00547833
0.022456599 0.085531898 -0.0052379998
-0.024271199 0.087739199 -0.0052290699
0.0154319 0.087183803 -0.0051890998
-0.0142375 0.088074997 -0.0057724998
-0.0296959 0.088698402 -0.0053520799
-0.0282249 0.088713199 -0.0054057399
-0.035418499 0.088975899 -0.0053091799
-0.0142241 0.088830903 -0.0054690498
-0.036951698 0.089116797 -0.0051672901
-0.034206402 0.0893123 -0.0056142798
-0.038428798 0.089249998 -0.0051000798
-0.039843999 0.089058697 -0.0051456601
-0.0230182 0.089593403 -0.0052514798
-0.0225526 0.0903541 -0.0050861998
-0.022079401 0.091618299 -0.0051214001
-0.0126755 0.092077397 -0.0054504499
-0.00361577 0.092188999 -0.00515887
-0.0122307 0.093078703 -0.0049566301
-0.0218668 0.093194902 -0.0050973301
-0.0050010602 0.092321403 -0.0051895301
-0.01126 0.093246698 -0.0055871201
-0.0088957297 0.093781203 -0.0052306
0.000842718 0.0932272 -0.0050530499
-0.0108953 0.094542801 -0.0048460402
-0.00961057 0.094191 -0.0050059999
-0.0299845 0.0948321 -0.0053335801
0.0019777699 0.094416201 -0.0049681002
0.00316788 0.095183603 -0.0051240399
0.00383036 0.095674098 -0.0049647102
-0.038428199 0.096144997 -0.0051306798
-0.037125401 0.096189201 -0.0049736099
-0.028893501 0.096095897 -0.0057724998
-0.0267867 0.097574197 -0.0055317301
-0.033955298 0.097521 -0.0051633399
-0.033303801 0.098575003 -0.0057724998
0.0101582 0.102141 -0.0057724998
-0.032265399 0.105059 -0.0053794198
0.0111371 0.104692 -0.0051527298
0.0125686 0.107776 -0.0052596801
0.0132616 0.109514 -0.0055422098
0.0135951 0.110563 -0.0052152602
-0.032537099 0.110472 -0.0057639899
-0.0340381 0.110535 -0.00549741
-0.030897301 0.111951 -0.0051579801
-0.034643501 0.11144 -0.0057724998
-0.0296675 0.113451 -0.0053066202
-0.028334299 0.113683 -0.0051199002
0.0146026 0.113934 -0.0056058299
-0.0276541 0.117923 -0.0055871299
-0.0276135 0.119575 -0.0057724998
0.016278701 0.120694 -0.0051544998
0.0167362 0.122403 -0.0051383902
-0.034411199 0.124359 -0.0053393599
0.0178682 0.125011 -0.0052291201
-0.0267183 0.126477 -0.0052542998
0.018914601 0.127985 -0.0055642198
-0.0261441 0.12918399 -0.0055975802
-0.0291565 0.12975401 -0.0058195898
0.0191369 0.12956899 -0.0052487799
-0.0338079 0.129354 -0.00537878
0.019251 0.130715 -0.0050835302
-0.032442398 0.130346 -0.0055667898
0.025676999 0.13111299 -0.0051768101
0.021161599 0.132576 -0.0055170702
-0.0255762 0.132241 -0.0051909201
0.0275981 0.133902 -0.00551986
0.028110901 0.13523801 -0.0054359599
-0.025072301 0.136547 -0.0049775601
-0.0248277 0.138015 -0.0052520302
0.029681601 0.13812099 -0.0049699098
-0.0280519 0.139366 -0.00519168
-0.025262 0.13928901 -0.0051334999
-0.0296515 0.13937099 -0.0050912201
-0.0265361 0.13952 -0.0052602799
0.0308902 0.14094 -0.00518684
0.0312433 0.14258701 -0.0051242202
-0.027951499 0.143426 -0.0051505598
0.031898599 0.146742 -0.0055522802
-0.023955701 0.156813 -0.0052029998
-0.023216199 0.159374 -0.0053141699
-0.0225843 0.16129801 -0.00517435
0.0327494 0.162632 -0.00509828
0.032700799 0.163957 -0.0051307799
0.025073299 0.16681699 -0.0050464701
-0.019820999 0.16732199 -0.0052180798
0.023459399 0.16826899 -0.0051241498
-0.0191314 0.168312 -0.0051579201
0.0323494 0.172906 -0.0052341102
0.0221588 0.174623 -0.0054684202
0.032367699 0.174261 -0.0052071498
0.0209451 0.17515001 -0.0058162198
0.020969 0.175482 -0.0051341001
0.029601101 0.175613 -0.0050995098
0.0226497 0.17688701 -0.00509567
0.029061399 0.17713299 -0.0051301699
0.0226414 0.17850199 -0.0053135301
0.028825499 0.17868 -0.0051082298
0.0225388 0.17996199 -0.00535437
0.028581399 0.181297 -0.0051233601
-0.018372601 0.18257999 -0.0053625498
0.0223809 0.181431 -0.0053418302
0.0285335 0.18271101 -0.00520118
0.032493599 0.18258201 -0.0052948799
-0.0192664 0.183437 -0.0056596501
0.022506399 0.184251 -0.0058251
0.032545701 0.18427899 -0.00502015
-0.0194885 0.184265 -0.00560498
-0.019280501 0.185725 -0.0055483002
0.021824099 0.18595 -0.0057414002
0.0336137 0.18696 -0.0052156602
0.0213069 0.18705399 -0.0051217601
0.0214596 0.187353 -0.0057936301
0.028813699 0.18712001 -0.0054133302
-0.017985599 0.18988 -0.00559993
0.0297572 0.18996499 -0.0054802098
0.033344999 0.19125 -0.0051076901
-0.0160238 0.19120499 -0.0057642302
-0.0186246 0.19199599 -0.0057724998
-0.0152003 0.191625 -0.0055931099
0.031328902 0.192711 -0.0055010999
-0.020077599 0.194574 -0.0056686802
-0.0134328 0.19553199 -0.00567107
0.033707201 0.195737 -0.0052700401
-0.0107217 0.195981 -0.0052493499
0.0297684 0.19725201 -0.00547795
-0.011379 0.19813401 -0.0053288899
0.0181616 0.198605 -0.0052133198
0.029816801 0.19874801 -0.0053682402
0.0176754 0.200104 -0.0052718101
-0.0138032 0.20190901 -0.0056072101
0.017074401 0.201713 -0.0052598901
-0.016395399 0.20305701 -0.0056564999
0.0170823 0.202941 -0.0052384702
0.031606499 0.20237701 -0.0057724998
-0.0168711 0.204473 -0.0056373798
0.0177145 0.204509 -0.0051689399
-0.0134768 0.206953 -0.0056772898
-0.0120792 0.207306 -0.00544219
0.0185457 0.215005 -0.00538181
-0.0053946199 0.216381 -0.0051188502
0.0170584 0.21769799 -0.0052100001
0.0053564999 0.223877 -0.0056475
0.032660499 0.052540202 -0.0051324
0.0243598 0.053324301 -0.0051162499
0.033263799 0.053533301 -0.0051683299
0.032766901 0.054400802 -0.0050524101
0.031994399 0.0553215 -0.0052100001
-0.034168102 0.056239299 -0.0051856101
0.0314539 0.055932902 -0.0048065302
-0.0382098 0.056575201 -0.0050579999
-0.036868699 0.056199901 -0.0048466502
-0.0341569 0.056921002 -0.00515948
0.0308202 0.057089299 -0.00502213
-0.041244902 0.0574219 -0.0048956298
-0.041668601 0.057885401 -0.0052164802
-0.034286398 0.058503099 -0.0050725001
0.031325001 0.058309499 -0.0051691802
-0.042349301 0.058792502 -0.0050497102
0.032282598 0.059178401 -0.0053975
-0.0431104 0.0594377 -0.0051475
-0.043709401 0.060082801 -0.0050079999
0.0327705 0.059719499 -0.0049904701
0.033932801 0.061289702 -0.0050685499
-0.044474401 0.0611092 -0.0051613902
-0.0334902 0.061004501 -0.0052100001
-0.0223657 0.061142899 -0.0052725002
-0.0078404704 0.061092298 -0.0051705898
-0.00367733 0.061138202 -0.0050322502
0.00212772 0.061080899 -0.0052414699
0.022155 0.060851499 -0.0050768298
-0.0328102 0.061231799 -0.0050225002
-0.019143499 0.061191 -0.0055224998
-0.0126435 0.061120398 -0.0055224998
-0.0095524304 0.061076902 -0.00510603
-0.0063589201 0.061487101 -0.0050870702
0.0077315001 0.061127398 -0.0051475
0.0136065 0.0611674 -0.0055224998
-0.044906501 0.0618397 -0.0051222201
-0.045313898 0.062751703 -0.0050262301
0.034606501 0.0626278 -0.0050849998
-0.045733102 0.064078599 -0.0049465001
0.034873601 0.063575 -0.0051312698
0.035086401 0.0647 -0.0055439398
0.035094399 0.067196697 -0.0051113502
-0.046005402 0.067463897 -0.00498083
-0.045736801 0.068467401 -0.0048507298
0.0348529 0.0681457 -0.0050849998
-0.045100901 0.069839902 -0.0050558299
-0.0445203 0.070766002 -0.0051475
-0.043823 0.071505196 -0.0050225002
-0.043186098 0.072104 -0.0051475
0.0317096 0.0721903 -0.0053975
-0.0427108 0.072428599 -0.0050465902
0.0309851 0.0727209 -0.0050159502
-0.041623998 0.073088601 -0.0051162499
-0.041083299 0.074263699 -0.0050121299
0.030435501 0.074824996 -0.0052725002
0.031127499 0.075736001 -0.0050463099
0.031861801 0.076567799 -0.0050699199
-0.042589799 0.077339999 -0.00509963
0.032111499 0.077477798 -0.0050786701
-0.042410199 0.0789572 -0.0050408598
0.031896099 0.0786063 -0.0050225002
0.00022569 0.079325102 -0.0056104902
-0.041304 0.079774201 -0.0050863898
-0.0106199 0.079478398 -0.0057248301
0.0065008299 0.079375997 -0.0051689399
0.0312449 0.079347298 -0.0049902201
-0.0112277 0.079607598 -0.0051567098
0.0011355201 0.079509497 -0.0051396401
0.00153255 0.079541199 -0.0051503601
0.0277912 0.081296198 -0.0050699702
-0.014792 0.0817343 -0.0051193102
-0.0272633 0.082019903 -0.0054705599
0.0259082 0.082358301 -0.0053558298
0.0122627 0.083082803 -0.0050743399
0.0252758 0.083045103 -0.0049549998
-0.026819 0.084573001 -0.0052094902
0.0239409 0.084525101 -0.00510401
0.0228565 0.08495 -0.0057122898
-0.025509801 0.0860103 -0.0050701001
-0.0147446 0.086020797 -0.0051869201
0.023241 0.0853386 -0.0051262002
0.021151301 0.085854702 -0.0052038901
0.0141491 0.085633896 -0.0051973499
0.0150212 0.0861049 -0.0048542898
-0.0247705 0.0870566 -0.0050188
0.018939801 0.086789601 -0.0050958698
-0.0147482 0.087563097 -0.0049806698
0.017853601 0.087204397 -0.0051442799
0.0166509 0.087447897 -0.0050717699
-0.027183799 0.088147998 -0.00557653
-0.026642799 0.0888419 -0.0055399002
-0.0255394 0.088912703 -0.0056587998
-0.040749598 0.089242302 -0.0047347299
-0.040885702 0.090259701 -0.0049707801
-0.033927102 0.090465099 -0.0053025899
-0.0140629 0.090471201 -0.00498001
-0.0328313 0.090754502 -0.0056360601
-0.0400961 0.091584802 -0.0051763002
-0.032496501 0.091695301 -0.0051331399
-0.0133934 0.091704898 -0.00485721
-0.0060468302 0.092437796 -0.0055182101
-0.039708301 0.0931594 -0.0051636598
-0.031550299 0.092446402 -0.00535144
-0.0021335699 0.092348203 -0.0050256299
-0.031330202 0.093167603 -0.0049707601
-0.00659231 0.0928251 -0.00510068
-0.00058994 0.092620999 -0.0052142702
-0.0077843699 0.093429103 -0.0050166799
-0.040292501 0.094650097 -0.0050520501
-0.030548999 0.094209701 -0.0050159101
0.0013952 0.0940447 -0.0054021301
-0.0221397 0.094894901 -0.0052773999
-0.0395547 0.095944002 -0.0050620199
-0.0293766 0.096057601 -0.0050283801
-0.0223232 0.096111298 -0.00492681
-0.0262495 0.096280597 -0.00564784
-0.023652099 0.096498303 -0.0054362598
-0.0252467 0.096547298 -0.0054419902
0.0046986402 0.096519001 -0.0050413399
-0.035583898 0.096506603 -0.00507417
-0.0283459 0.097717203 -0.00500686
0.0054068398 0.097245499 -0.00516879
-0.034786198 0.0969164 -0.0051558302
0.00611941 0.097906999 -0.0050682998
-0.0268116 0.099040598 -0.0049914401
0.0068455799 0.098719999 -0.00504715
-0.032731399 0.099000201 -0.00506707
0.0075245202 0.099442199 -0.0052896002
-0.032010701 0.100528 -0.0051272698
0.00828226 0.100511 -0.00512189
0.0091915401 0.10087 -0.0055909301
0.0093555702 0.101952 -0.0049433
-0.031472702 0.101965 -0.0049657598
-0.0313017 0.103267 -0.0050248499
0.00998215 0.10274 -0.0051161698
0.0104527 0.103497 -0.0051231398
-0.031449199 0.104401 -0.0049990299
-0.035166401 0.10511 -0.00498243
-0.0340591 0.10514 -0.0052078799
0.0116066 0.105388 -0.0053761601
-0.036180601 0.105483 -0.00508518
-0.037120201 0.106309 -0.0049054702
0.0119042 0.106431 -0.00509133
-0.037882902 0.107756 -0.0049827499
-0.037866499 0.106912 -0.0053558298
-0.0378308 0.10862 -0.0054138801
0.0128485 0.108802 -0.0049700402
-0.0370414 0.1091 -0.00495105
-0.032571599 0.109198 -0.0052743
-0.0313082 0.110524 -0.0051813801
-0.036633901 0.110542 -0.005326
0.015419 0.1107 -0.0057550501
-0.035140902 0.110526 -0.00522721
0.0140558 0.112025 -0.0052222898
-0.0361435 0.111575 -0.0057379799
-0.035393499 0.111575 -0.0057226601
-0.030662499 0.112973 -0.0054676398
0.0142122 0.113282 -0.0048720101
0.0146715 0.114891 -0.0050758799
-0.0278109 0.114783 -0.0051338598
0.0150652 0.116323 -0.0051432899
0.0153991 0.117894 -0.0051214802
0.015702199 0.118969 -0.00499052
-0.0275838 0.120785 -0.0054901098
-0.0310682 0.121318 -0.0054117399
-0.0310384 0.121566 -0.0048855799
-0.0295137 0.122215 -0.0050954302
-0.028251899 0.122207 -0.00551295
-0.032734901 0.122147 -0.0050437101
-0.033392798 0.122763 -0.0052725002
0.0170373 0.123464 -0.0049764402
-0.028452501 0.123623 -0.0053268401
-0.027082101 0.123631 -0.0051510301
0.017406 0.123859 -0.00529416
-0.033898499 0.123774 -0.0050395601
-0.0283457 0.124916 -0.00527687
-0.026905401 0.124879 -0.0051765
-0.0350882 0.12501401 -0.00512094
-0.035177801 0.126436 -0.0051463898
-0.0283367 0.126185 -0.0053009698
0.018306499 0.12626199 -0.00519684
-0.028349901 0.127655 -0.0054836501
-0.0263141 0.127808 -0.0052405298
0.0184792 0.12776799 -0.00501556
-0.034906302 0.12750401 -0.0054111602
-0.034048099 0.12784 -0.0050653899
-0.0286761 0.12895399 -0.0056618699
-0.0297463 0.129501 -0.0054816599
-0.025926501 0.12950499 -0.00498814
-0.033470001 0.13014001 -0.00555326
-0.031051099 0.13029 -0.0055414899
-0.025754699 0.130904 -0.0051061101
0.0263732 0.131118 -0.0054391702
0.022496199 0.13144 -0.0057723098
0.022415301 0.132116 -0.0053683599
0.023919201 0.13222399 -0.0051142001
0.0249091 0.131842 -0.0049171899
0.026763801 0.13218001 -0.0050233901
-0.0254275 0.133763 -0.0052058301
0.0271936 0.13356601 -0.0049925102
-0.0253119 0.13502499 -0.0050745802
0.0282091 0.136352 -0.0050720298
0.0292332 0.137032 -0.0052871099
-0.032490999 0.13858099 -0.00501994
0.030398199 0.138621 -0.0051323399
-0.033994801 0.139314 -0.0050524198
-0.031113399 0.13899 -0.0051594502
0.0306728 0.139735 -0.0050347298
-0.034117699 0.14106099 -0.0050884802
-0.033543602 0.141748 -0.0050882399
-0.0326945 0.142204 -0.0050124498
-0.029662101 0.142496 -0.0050854501
-0.031114301 0.142533 -0.0049796798
-0.0284067 0.142676 -0.0053050201
-0.027290801 0.144324 -0.0051847799
0.0312472 0.143886 -0.0047693499
-0.0268094 0.14528599 -0.0049204598
0.031295601 0.145339 -0.0048174099
0.0318118 0.145742 -0.0054391702
-0.026385801 0.14665601 -0.0050799702
0.031444401 0.14800499 -0.0048960801
0.0318872 0.14857499 -0.0054808301
-0.026456 0.14818899 -0.0049586101
-0.0264611 0.149608 -0.0050783702
0.0318432 0.14993399 -0.00531819
-0.0267452 0.15120199 -0.0048363102
0.032073598 0.151318 -0.0055224998
-0.026610799 0.152435 -0.00495754
-0.0256209 0.15286601 -0.0054309801
0.031952601 0.15248799 -0.0050865998
-0.0253963 0.153809 -0.0052607702
0.0320637 0.153768 -0.0050266702
-0.025263499 0.155275 -0.0047168001
-0.024338899 0.155718 -0.0051176301
0.032216601 0.155338 -0.0051328801
0.032506701 0.156895 -0.0050883899
-0.023540201 0.15823101 -0.0050853798
0.032722801 0.158031 -0.0049352301
0.032876499 0.15949801 -0.00505395
0.032883499 0.161048 -0.00499869
-0.0220534 0.16285799 -0.00498083
0.028303601 0.162995 -0.0049605998
0.0295293 0.162962 -0.0049870298
0.0277445 0.163608 -0.0051935399
0.0301065 0.163405 -0.0052100001
0.0306747 0.164088 -0.0050768401
-0.021574 0.164088 -0.00487989
0.0271053 0.16426399 -0.00499412
-0.0210217 0.165305 -0.0051068398
0.026367901 0.16509099 -0.00492776
0.030993 0.165556 -0.0050671399
0.032628201 0.16543201 -0.0050389799
0.032718498 0.166952 -0.00521331
-0.020413 0.166337 -0.0050849998
0.031032899 0.16722 -0.0051940102
0.0242445 0.167468 -0.0051268898
0.032694101 0.168538 -0.00502832
-0.0185977 0.16901299 -0.0050849998
0.0226516 0.16895001 -0.0048959302
-0.0178314 0.169921 -0.0051092501
0.022206999 0.169269 -0.0052409498
0.0310784 0.16987699 -0.0051199701
0.021336 0.169907 -0.0050217998
0.032673299 0.16984899 -0.0051089101
0.020653 0.171303 -0.0050377399
-0.016853601 0.171321 -0.0051168399
0.030953599 0.171189 -0.0049027302
0.032542899 0.171358 -0.00513802
0.0307614 0.17249 -0.0052100602
-0.016459201 0.17283501 -0.0051058298
-0.016655801 0.17422 -0.0051288302
0.0206827 0.174257 -0.0050672898
0.0301688 0.174325 -0.0050670202
0.022421099 0.175529 -0.00504557
0.032498602 0.175662 -0.0048673898
-0.0171417 0.175531 -0.00508339
0.032557599 0.176844 -0.0050654099
0.032649599 0.178387 -0.0049457499
-0.017978299 0.17832699 -0.0051196199
0.032362498 0.179949 -0.0052191298
-0.0182178 0.17995299 -0.0050352998
0.028695101 0.180016 -0.0050541102
-0.0183104 0.18136699 -0.0052790102
0.032499101 0.181293 -0.0051691202
0.0221567 0.18273 -0.0053492598
0.0220196 0.184452 -0.0056308601
0.0285959 0.18431801 -0.0050254301
0.021555699 0.184368 -0.0050266501
0.021474401 0.185783 -0.0051829298
0.028740801 0.18573099 -0.00517875
0.0311074 0.185754 -0.0055190101
0.033721399 0.185683 -0.00492542
-0.0191858 0.186997 -0.00555722
0.0297752 0.187143 -0.0050859498
0.0308073 0.187122 -0.0056675202
0.032212801 0.18708301 -0.0051465998
0.021101 0.188449 -0.00512768
0.029449699 0.188564 -0.0051874099
0.0310209 0.188659 -0.0055246102
-0.019190099 0.18859801 -0.0054398198
0.033681698 0.18836699 -0.0051058298
0.0312219 0.19013201 -0.0053836699
0.033648301 0.189978 -0.0049617202
-0.0191701 0.19010399 -0.0053390302
-0.016579499 0.190016 -0.0054246099
0.0207064 0.19013201 -0.00486972
-0.0154008 0.190155 -0.00496057
-0.019447699 0.191516 -0.0053689601
0.0205345 0.191429 -0.0050902199
0.0301065 0.191075 -0.0057424698
0.031101899 0.19147401 -0.00547835
0.032488801 0.19148 -0.0048440299
-0.0141249 0.191434 -0.00483394
-0.019575 0.192849 -0.0054460098
-0.0148935 0.192325 -0.0057407101
-0.0137753 0.19301599 -0.0048831799
0.020354001 0.19275101 -0.00537562
0.032548301 0.19268 -0.0051610302
-0.0137755 0.194297 -0.0052199299
0.019719001 0.19442099 -0.005134
0.031617299 0.194242 -0.0055389302
0.032614801 0.19453 -0.0054251701
-0.020455999 0.19419999 -0.0057399799
0.031151701 0.195851 -0.0050701401
-0.0206852 0.1957 -0.00567229
-0.019450599 0.19578899 -0.0055213701
-0.0121461 0.194442 -0.0050172601
-0.018078299 0.196078 -0.0054799798
-0.0121643 0.19561701 -0.0056955898
0.0191775 0.19579899 -0.0050613098
0.030192601 0.19629 -0.0054185102
-0.019143499 0.196825 -0.0056424802
-0.017988401 0.19717801 -0.00558765
-0.0108284 0.197275 -0.00518214
0.018974399 0.197037 -0.00523894
0.0339945 0.197126 -0.0049710399
-0.0117088 0.198716 -0.0050968402
0.033903301 0.19870099 -0.00513897
0.033684399 0.20018201 -0.00513501
-0.0122233 0.200167 -0.0051107602
0.0299691 0.20037299 -0.00556939
0.031181701 0.20140401 -0.0051514399
-0.0128143 0.20162401 -0.0051409602
0.033467501 0.201557 -0.0052862298
-0.0151257 0.20228299 -0.00564847
0.032696199 0.201694 -0.0050209099
-0.0151779 0.20299201 -0.0052219601
0.0173719 0.203575 -0.0055224998
-0.016393499 0.20532501 -0.0056497501
0.018335501 0.20596801 -0.00510561
-0.0151952 0.205622 -0.00543844
-0.0137909 0.206112 -0.00525004
0.018933799 0.20767801 -0.0051394398
-0.011005 0.207709 -0.0050633098
-0.0103506 0.208286 -0.0052060802
-0.0096972901 0.208987 -0.0051259198
0.0193778 0.21026599 -0.0051579899
-0.0089399898 0.209971 -0.0049252799
-0.0083751604 0.21057101 -0.0051857601
-0.0076351198 0.21168201 -0.0049598301
-0.0071783802 0.212419 -0.0053558298
-0.00680451 0.21325099 -0.0051039802
0.018890999 0.214138 -0.0052100001
-0.0063769398 0.21450201 -0.0050510499
-0.00604621 0.21585301 -0.0051672398
0.018039901 0.21608201 -0.0052224998
-0.0047498099 0.21721099 -0.0052224998
-0.00427547 0.21813001 -0.0051100901
0.016549001 0.218435 -0.0052672201
-0.0036549999 0.21905801 -0.0051727602
0.0157561 0.219355 -0.0051475
-0.00301174 0.219825 -0.0053975
0.015061 0.219991 -0.0051917601
-0.0022557401 0.220603 -0.0048952699
0.0139828 0.220864 -0.0051638698
-0.0015185 0.221232 -0.0055224998
0.0132433 0.221377 -0.0052254898
-0.00069541897 0.22197001 -0.0051303799
0.0123055 0.22196899 -0.0050133201
0.0112991 0.222482 -0.0050225002
0.0105009 0.22283199 -0.0049919598
0.000562453 0.222743 -0.0051551498
0.0020525199 0.223336 -0.0049733198
0.00930316 0.22323 -0.00515293
0.0078465901 0.223627 -0.0052756299
0.0037819401 0.223764 -0.00521074
0.0064177602 0.223937 -0.0049391701
0.027635099 0.0522772 -0.0051469998
0.0312216 0.052308299 -0.0050182398
0.033333901 0.053241801 -0.0048739999
0.00074187899 0.061074201 -0.0051475
-0.029656401 0.061324801 -0.00503702
-0.023518501 0.061248198 -0.0050225002
-0.0153935 0.0611693 -0.0052725002
-0.0113935 0.061105698 -0.0052725002
-0.0058945101 0.062276799 -0.00515034
-0.0055334 0.0623275 -0.0051325299
-0.045993499 0.065449998 -0.0050225002
0.0345021 0.068918101 -0.0049391701
-0.0421592 0.076419502 -0.0051475
-0.0050491998 0.079261199 -0.00476065
-0.00048130401 0.079245903 -0.0050073201
0.00475553 0.079399399 -0.0055386298
0.0081326496 0.079257503 -0.0050041298
0.0119136 0.0800758 -0.00458762
-0.0279053 0.0815707 -0.0048668701
-0.0147422 0.083149999 -0.0049702101
-0.0147233 0.084586598 -0.00509605
-0.026440799 0.085344903 -0.0049762302
0.019794 0.086476497 -0.00502274
-0.0145446 0.088729098 -0.0049391701
-0.025423 0.097447701 -0.0048672999
-0.033989001 0.109066 -0.0050617401
-0.0276627 0.116546 -0.00526358
0.0159522 0.119575 -0.0052725002
-0.0272862 0.120883 -0.0048299702
-0.027184101 0.122474 -0.0049727899
-0.0294965 0.127717 -0.0049045999
-0.0327188 0.12950601 -0.0050418898
-0.0312063 0.129287 -0.00497887
0.0220153 0.133186 -0.0046650101
0.031066701 0.168486 -0.0050011799
0.0205235 0.17295 -0.0050462098
0.030080199 0.18261699 -0.0049269702
0.0310241 0.182697 -0.0050196201
-0.018142801 0.184211 -0.0049083801
0.0297672 0.184393 -0.0048049199
0.031072499 0.184285 -0.0052321302
0.033700801 0.18424 -0.00489257
0.029649001 0.185763 -0.0049494002
0.0323679 0.18588901 -0.0048749498
-0.017918499 0.18834101 -0.00522561
0.032253198 0.188805 -0.00494267
-0.0166301 0.188729 -0.0048584598
-0.0107465 0.194454 -0.0048729698
-0.0137313 0.202942 -0.0049613598
-0.0151411 0.20429499 -0.0050532301
0.019151799 0.20872 -0.0048977602
0.0190963 0.21334299 -0.0049947202
-0.00014349799 0.061061598 -0.0050225002
0.0212315 0.060980398 -0.0047725001
-0.031018499 0.061239898 -0.0047725001
-0.0176435 0.061183799 -0.0050225002
0.0041065002 0.0611021 -0.0050225002
0.0111065 0.0611444 -0.0050225002
0.0181065 0.0611494 -0.0048974999
-0.00194673 0.079291902 -0.0050635701
-0.0033501601 0.079334401 -0.0049013598
0.00284337 0.079489604 -0.00503689
0.0039767199 0.079474904 -0.0051034898
0.0290449 0.0795362 -0.0047114599
-0.0382687 0.079685003 -0.0050229002
-0.035360601 0.079733603 -0.0047211698
-0.032400899 0.079693101 -0.0050268802
0.0119476 0.081629097 -0.0046843202
0.01364 0.084636196 -0.0047158101
-0.0354698 0.090217099 -0.0047444198
-0.040560599 0.091201 -0.0047271
-0.0338041 0.091760501 -0.0049072201
-0.0237417 0.097457796 -0.0047551901
-0.027952099 0.098609403 -0.0047702799
-0.025830001 0.098421603 -0.0045561702
-0.032654401 0.106146 -0.0048674499
-0.034083501 0.106355 -0.0046232198
-0.032591399 0.107834 -0.0047664698
-0.031505398 0.109189 -0.0047814702
-0.0294546 0.123596 -0.0047551501
-0.0293786 0.124889 -0.0046284702
-0.0294296 0.12641101 -0.00464838
0.0186087 0.128916 -0.0046649501
0.0208239 0.13370501 -0.00474435
0.027390599 0.135139 -0.0047105602
0.0283313 0.138009 -0.0046278001
0.031260502 0.14663599 -0.0047520101
0.031495899 0.149391 -0.00477779
0.031681299 0.151044 -0.0047725001
-0.026796499 0.15371899 -0.0047369301
-0.0228724 0.1602 -0.0046474999
-0.021800799 0.16357499 -0.0050225002
0.0303935 0.17377099 -0.0051157698
-0.017695401 0.17716099 -0.0047725001
0.0289241 0.17787901 -0.0048426702
0.030987 0.181315 -0.0046193199
0.033697501 0.182651 -0.0047371802
0.021629199 0.182647 -0.00474778
-0.018151101 0.18572301 -0.0049843001
-0.018028099 0.186959 -0.0050246101
0.0321563 0.190135 -0.0049088998
0.0200359 0.191965 -0.00462673
0.0196537 0.192856 -0.0046368898
0.032448199 0.19555099 -0.0048236302
0.0308061 0.197189 -0.0046311002
0.0180737 0.19733 -0.0048726099
0.0309784 0.20017201 -0.0046939701
0.0171459 0.20023701 -0.0046479502
-0.0136658 0.20478401 -0.0046867798
-0.0123996 0.20615301 -0.0047031702
0.018661801 0.206991 -0.0047609899
0.019354301 0.21145999 -0.0048224898
0.0175489 0.216975 -0.0047725001
-0.0016435001 0.061043099 -0.0047725001
0.0128565 0.061172601 -0.0047725001
-0.0152675 0.079911597 -0.0036902099
-0.040143501 0.079700097 -0.0047725001
-0.0116706 0.0796673 -0.0047925701
-0.027889499 0.0830504 -0.0045451298
-0.0351335 0.091744699 -0.0045602899
-0.032742701 0.092977501 -0.0045425599
-0.0010091499 0.092498802 -0.0046433099
-0.021676499 0.093851402 -0.0045945402
-0.0216696 0.094714798 -0.0045857001
-0.0290755 0.096996799 -0.0046087499
-0.022527801 0.097028397 -0.0045984699
-0.026660001 0.100432 -0.0045548701
0.0114282 0.105825 -0.0046474999
-0.034116901 0.107662 -0.0047125998
-0.0354403 0.109135 -0.0046706102
0.0143659 0.114494 -0.00460786
-0.027410099 0.119299 -0.0047267699
-0.033965498 0.126313 -0.0046810498
-0.0328268 0.12659 -0.00460226
-0.032614201 0.12792601 -0.0048418301
-0.031066099 0.12809899 -0.00456955
0.0236031 0.133187 -0.0046310299
-0.026967401 0.155055 -0.0044929101
0.025702599 0.166014 -0.0047079199
-0.017419299 0.17624401 -0.0047725001
0.020443499 0.17653701 -0.00457507
0.033623699 0.18136799 -0.0046010599
-0.017160101 0.187148 -0.0045506
-0.0155446 0.189199 -0.0045368001
-0.014238 0.190451 -0.0045246999
-0.0097904503 0.1946 -0.0045635798
-0.0100512 0.195647 -0.0046543502
0.017894 0.195805 -0.00461696
0.0305884 0.198884 -0.0046399999
0.0294815 0.052074999 -0.0045581199
0.023789899 0.0542983 -0.0035635
0.0236621 0.0557561 -0.00361301
0.0166065 0.061191499 -0.0045225001
-0.0266435 0.061359901 -0.0045225001
-0.0095885098 0.079400197 -0.0034090099
0.0047149998 0.079497397 -0.0044797799
-0.033417899 0.079683803 -0.0045378599
-0.0286419 0.080293998 -0.0043147001
-0.0242445 0.088900298 -0.0035786401
-0.022744101 0.090505399 -0.0038562501
-0.0338929 0.093166202 -0.0044985502
-0.0052260901 0.092197903 -0.00386356
-0.00676715 0.093077801 -0.0037485701
0.00187823 0.093453802 -0.0034705999
-0.0118711 0.094544597 -0.00448622
0.0023753401 0.094313897 -0.0037940999
-0.0095021296 0.094651401 -0.0035510301
-0.0106859 0.095166601 -0.00385959
0.0041292701 0.095683001 -0.0042921598
-0.033143502 0.097992703 -0.0045225001
-0.034923598 0.107762 -0.0044329199
-0.0296818 0.112658 -0.0045225001
-0.0274354 0.118325 -0.0045225001
0.017254001 0.124325 -0.0045225001
-0.025950201 0.128575 -0.0045225001
0.0194583 0.132162 -0.0036335001
0.025265699 0.132158 -0.0036532399
0.022348899 0.133232 -0.0041148602
0.0237056 0.133221 -0.0041959002
0.020033199 0.13342901 -0.0038544601
0.020935399 0.13348199 -0.00373719
-0.0247682 0.137683 -0.0039296602
0.0301065 0.139017 -0.0045225001
-0.0295435 0.14323699 -0.0044901399
0.025000099 0.166558 -0.0037458099
0.031079801 0.169608 -0.00372802
0.0292197 0.17675599 -0.00360917
0.033388801 0.179985 -0.0045608301
0.018247601 0.1947 -0.0045250799
0.016760901 0.195871 -0.0045063202
0.0164776 0.197474 -0.0046020802
0.0166601 0.198515 -0.0045345998
0.0327911 0.200554 -0.0044657802
0.017230101 0.203825 -0.0045225001
0.0265208 0.051725201 -0.0037370501
0.031189799 0.051725 -0.00367876
0.032979801 0.0524447 -0.0036553501
0.0249801 0.052469201 -0.0036684601
0.033313099 0.052844901 -0.0037947199
0.0243438 0.053233702 -0.0036209
0.032887701 0.054085199 -0.00383693
-0.035252701 0.055671901 -0.00378226
0.0313817 0.055930901 -0.0036115299
-0.036679 0.055903502 -0.0037022999
-0.034117699 0.0559703 -0.0035325501
-0.0384131 0.0563109 -0.0035105001
0.023747399 0.056712698 -0.003755
-0.038796999 0.056477401 -0.0038350001
-0.034384798 0.056988399 -0.00353093
-0.039743502 0.056700699 -0.0037477899
-0.0411187 0.057171799 -0.00373064
-0.041717999 0.0579083 -0.0035224999
0.023460699 0.058403101 -0.0040219799
0.0312015 0.058276501 -0.00359983
-0.042227801 0.058835302 -0.00371036
-0.034264602 0.0583543 -0.00380375
0.0326996 0.0597362 -0.0037380301
-0.043040499 0.059524 -0.00358173
-0.043670401 0.0601485 -0.00361575
0.023132499 0.059911501 -0.0042089098
0.022927299 0.060137901 -0.0036195
-0.033743698 0.0600802 -0.00350861
0.0339728 0.061491799 -0.00373155
-0.044433702 0.0612421 -0.00333103
-0.033394199 0.061066899 -0.00352697
-0.0095809996 0.0610862 -0.0042853998
-0.0080761304 0.061067399 -0.0037372201
0.00085650198 0.061094198 -0.0038032001
0.022112399 0.060846299 -0.0038491699
-0.032581501 0.061274402 -0.0038951901
-0.030022901 0.061324101 -0.00384229
-0.0252927 0.061346199 -0.0036991199
-0.019768501 0.061229099 -0.0040225
-0.0183935 0.0612178 -0.0037725
-0.016560201 0.061202601 -0.0035224999
-0.0122685 0.061121698 -0.0041474998
-0.0065857898 0.061099 -0.00386529
-0.0049700299 0.061103001 -0.0036038
-0.0041434998 0.061082099 -0.0041891602
0.0147315 0.0612211 -0.0036475
0.0195232 0.061089501 -0.0036891699
-0.044884901 0.061981998 -0.00350308
0.0345424 0.062721297 -0.0037237499
-0.045225602 0.062749296 -0.0035401699
-0.045701701 0.064199097 -0.00383831
0.0350927 0.065858804 -0.0036041001
0.035015199 0.067245103 -0.00355352
-0.0459278 0.0673448 -0.0035433299
-0.045576502 0.068723701 -0.00378962
0.0348262 0.068092898 -0.0038559299
0.034507599 0.068808302 -0.00384866
0.033792101 0.070010804 -0.0036245601
-0.044531599 0.0706257 -0.0033076201
0.032651398 0.071383499 -0.0036422899
-0.044005699 0.071230099 -0.0034041801
-0.0431973 0.071976401 -0.0035437699
-0.042456102 0.072498702 -0.0037149
0.031757101 0.072149403 -0.0038099999
0.030922201 0.072714299 -0.00362408
-0.040966801 0.074445002 -0.0035937601
0.030355699 0.0743545 -0.0038127999
0.0311599 0.0758835 -0.0037414101
-0.0415098 0.075932004 -0.00354201
-0.0421189 0.076508403 -0.00380746
-0.0424961 0.077248298 -0.0039025999
0.032017801 0.077491701 -0.0036891699
0.0319263 0.078241102 -0.0037334
0.0309655 0.079278402 -0.0038237099
-0.0422992 0.078995697 -0.00345779
-0.0047285599 0.079313397 -0.0035791099
0.000303212 0.079356499 -0.0036271401
0.0108923 0.0792007 -0.00362928
0.0123028 0.079238303 -0.00352277
0.0126746 0.080175899 -0.00372758
-0.041156601 0.079700299 -0.00375784
-0.029547101 0.0800891 -0.0036409099
-0.0065012001 0.079414301 -0.0038016301
0.0290376 0.079654701 -0.0035423599
0.029675299 0.0793676 -0.00343455
-0.030594399 0.079693504 -0.0036837501
-0.0119028 0.079690002 -0.00377792
-0.0110331 0.079604797 -0.0036909599
0.00123387 0.079520203 -0.0037712599
0.028782399 0.080357596 -0.00344828
0.012617 0.081549399 -0.0039263102
0.028066499 0.081490599 -0.0037161
-0.028662801 0.081725404 -0.0040774802
-0.0154358 0.081757098 -0.0038010101
0.0272609 0.082113698 -0.0039697201
0.0267212 0.082949303 -0.00352493
0.0128758 0.082777098 -0.0041312799
-0.028447799 0.083234496 -0.00374586
0.0252496 0.083413601 -0.0036905301
0.0137832 0.083404496 -0.0034417701
-0.0279749 0.084417097 -0.0034727701
0.0140819 0.084319703 -0.0039100498
0.023948601 0.0846873 -0.00360303
-0.027349001 0.084920503 -0.0038511001
-0.0153735 0.084586702 -0.0035530799
-0.0266052 0.085782498 -0.0035991401
-0.0153796 0.085846901 -0.00375428
0.0155908 0.085792899 -0.0038086199
0.0232717 0.085327797 -0.0038224999
0.022309 0.085740902 -0.0036217601
-0.0258331 0.086370997 -0.0037747601
0.021041401 0.086068101 -0.0039070202
-0.0251662 0.087402798 -0.0033776399
-0.0153309 0.087424703 -0.0038789499
0.0179922 0.086972497 -0.0039199898
0.019776801 0.086489201 -0.0036852499
0.016775301 0.087034702 -0.0040353299
-0.0245579 0.087908901 -0.0041960599
-0.0153517 0.088938601 -0.0035598001
-0.040884499 0.088972002 -0.0036710601
-0.039724302 0.088903397 -0.0036526001
-0.038685501 0.0895418 -0.0040282002
-0.0412561 0.090353601 -0.00366924
-0.038419399 0.090226702 -0.00331712
-0.0370235 0.090389401 -0.0040169102
-0.0235308 0.090034097 -0.00342044
-0.0149239 0.090165198 -0.0038499699
-0.036393501 0.090075001 -0.0044011502
-0.040682402 0.091229796 -0.0038223099
-0.022055199 0.091812998 -0.0037503501
-0.0140756 0.091830797 -0.00413159
-0.036743701 0.091722898 -0.0036327899
-0.039900601 0.091888003 -0.00360641
-0.035668001 0.092255801 -0.0041265101
-0.035356 0.093447097 -0.00387748
-0.013797 0.093176901 -0.0037790099
-0.00356532 0.092248902 -0.00388978
-0.000291303 0.0925925 -0.00374845
0.000816282 0.092809901 -0.0039158398
-0.0393176 0.093394898 -0.0035162701
-0.034393501 0.093324997 -0.0043194401
-0.021507399 0.093469098 -0.00367598
-0.034125 0.094577901 -0.00396471
-0.0326792 0.093857601 -0.0042879102
-0.0316521 0.093782999 -0.0042171199
-0.0075678201 0.093812697 -0.0036681199
-0.0311049 0.094715796 -0.003889
-0.039876599 0.094705202 -0.0037046999
-0.0125509 0.094655998 -0.0039818198
-0.0211707 0.0947138 -0.00348917
0.0036231801 0.094881199 -0.0035712
-0.030189199 0.095194899 -0.0041616498
-0.039601099 0.095799796 -0.00365888
-0.0297621 0.096269302 -0.00365214
-0.0210751 0.0961143 -0.00354917
-0.0385115 0.095815897 -0.00355557
-0.037202399 0.095718198 -0.00389194
-0.035334401 0.095939197 -0.0041722702
0.0050119502 0.096066602 -0.0035425001
-0.033855502 0.096117899 -0.0039706202
-0.0341435 0.096825004 -0.0044157701
-0.0292268 0.097259298 -0.00351698
-0.0224219 0.097751498 -0.00410832
0.0055282898 0.096997999 -0.00393186
-0.033631898 0.097054899 -0.0042305398
-0.0288583 0.097836398 -0.0039365799
-0.0326791 0.097616203 -0.0038703401
0.0063483301 0.097650401 -0.00349657
-0.0283709 0.099036902 -0.00359234
-0.025165301 0.099050596 -0.00393428
-0.0238369 0.099026002 -0.0036720401
-0.023334 0.098279402 -0.0040972098
-0.032245401 0.098863699 -0.0040271999
0.0070081898 0.098692298 -0.00390886
0.00780298 0.099176802 -0.0034143301
-0.0319244 0.099737696 -0.0040461398
-0.027315101 0.100634 -0.00398834
-0.025248701 0.100508 -0.00358159
0.0082357898 0.1003 -0.0037903001
-0.031350601 0.100528 -0.0035222
-0.031138301 0.101756 -0.0036708601
-0.026873801 0.101905 -0.0037124699
-0.0256053 0.101878 -0.00383296
0.0094614299 0.101866 -0.00355696
